# .PCD v0.7 - Point Cloud Data file format
VERSION 0.7
FIELDS x y z
SIZE 4 4 4
TYPE F F F
COUNT 1 1 1
WIDTH 583
HEIGHT 1
VIEWPOINT 0 0 0 1 0 0 0
POINTS 583
DATA ascii
-0.14534859 0.59113139 -0.50175762
-0.094516277 0.59993327 -0.50238264
-0.15039074 0.60617685 -0.50177157
-0.21881242 0.18355353 -0.40386325
-0.15006162 0.17540285 -0.40542978
-0.081040144 0.18203788 -0.40394056
-0.30731887 0.28556126 -0.40204659
-0.23919354 0.25900263 -0.41127208
-0.1504655 0.25127053 -0.41832367
-0.058982212 0.25788289 -0.41168022
0.010688614 0.28721666 -0.40358067
-0.32150736 0.36367854 -0.41020319
-0.25026837 0.35087994 -0.42770508
-0.15014246 0.35206529 -0.43828633
-0.05050778 0.35120562 -0.42918056
0.023969425 0.36015123 -0.4108963
-0.40747616 0.48547211 -0.40378413
-0.34154359 0.45463583 -0.42104855
-0.24745218 0.45265099 -0.4433817
-0.15045896 0.45180568 -0.44928437
-0.052690119 0.45309442 -0.44411457
0.044304565 0.45438081 -0.42231703
0.1084802 0.48696899 -0.40355986
-0.41502044 0.56355464 -0.41033152
-0.34722185 0.55156237 -0.4362981
-0.25002527 0.55123448 -0.45585489
-0.15070149 0.54961222 -0.46574038
-0.050040938 0.55061078 -0.45733476
0.04787527 0.55332708 -0.43829176
0.11769108 0.56173205 -0.41189963
-0.41678023 0.61161053 -0.41058359
-0.34533975 0.61562186 -0.43281895
-0.24969454 0.6157676 -0.4598819
-0.14982967 0.61559677 -0.47104558
-0.050216306 0.6156022 -0.46185422
0.046190869 0.61638653 -0.43378836
0.11822652 0.612477 -0.41281202
-0.14851138 -0.30919784 -0.30185255
-0.087201178 -0.30331895 -0.30012807
-0.22315739 -0.22809279 -0.30658874
-0.15037657 -0.24175884 -0.31011805
-0.075817123 -0.23068462 -0.30656508
-0.30789676 -0.11443909 -0.30430147
-0.24255237 -0.14526469 -0.31662047
-0.1505657 -0.15010285 -0.32894972
-0.056000501 -0.14605664 -0.31767035
0.0092982864 -0.11773758 -0.30450323
-0.31938985 -0.041461263 -0.31111816
-0.25005427 -0.049461707 -0.33480164
-0.14996767 -0.049161177 -0.34845853
-0.049630426 -0.04945755 -0.3366217
0.022806717 -0.040735822 -0.31220388
-0.40056413 0.090448767 -0.30080095
-0.33656093 0.053551171 -0.32333252
-0.24906787 0.050759695 -0.35372955
-0.15022707 0.049679212 -0.36586207
-0.050772969 0.05026821 -0.35495058
0.040663183 0.054572772 -0.32471967
0.10021418 0.083805799 -0.30195588
-0.40844318 0.17026113 -0.30755529
-0.34855053 0.1510223 -0.33832163
-0.25092536 0.14875335 -0.37076563
-0.14964963 0.14265227 -0.38006806
-0.047753409 0.14757828 -0.37212569
0.047856424 0.15176208 -0.34111634
0.11025131 0.16594879 -0.31027538
-0.42213663 0.25710738 -0.3185586
-0.3488732 0.25089473 -0.35771969
-0.26197794 0.24137431 -0.37330976
-0.15015291 0.24888657 -0.36817881
-0.038157683 0.24001482 -0.37349498
0.050435245 0.25096416 -0.35927877
0.12495984 0.25641984 -0.32140377
-0.43658033 0.35497481 -0.33216396
-0.35924378 0.34806982 -0.36455673
-0.25294322 0.35180691 -0.37581924
-0.15092853 0.34543687 -0.38657868
-0.047879562 0.3522419 -0.3766982
0.059875734 0.34683344 -0.36588863
0.13892929 0.35416561 -0.3338992
0.20037907 0.39274913 -0.30127367
-0.50638705 0.47767746 -0.30818945
-0.44661361 0.45283371 -0.34431326
-0.36193344 0.44607821 -0.3669737
-0.26297519 0.44021699 -0.38873607
-0.15204671 0.41965845 -0.39590156
-0.036811221 0.43853644 -0.39017761
0.060406633 0.44424012 -0.36879444
0.14686388 0.45138422 -0.34751433
0.20840828 0.47250366 -0.31023175
-0.516743 0.5590924 -0.31865647
-0.45252225 0.54946464 -0.35550538
-0.35930976 0.54782659 -0.37631014
-0.28835222 0.51640487 -0.3940078
-0.011829275 0.5179258 -0.3967419
0.060103051 0.54587322 -0.37868348
0.15452051 0.54959154 -0.35665902
0.21910216 0.55650538 -0.3223497
-0.51597989 0.61357796 -0.31956369
-0.45476907 0.616669 -0.35423335
-0.3779085 0.61417633 -0.38676643
0.07938052 0.61299366 -0.38733056
0.15609744 0.61649865 -0.35758603
0.21899152 0.6148141 -0.32063103
-0.32736036 -0.33967367 -0.22301944
-0.24774028 -0.35140792 -0.24963841
-0.1519212 -0.33324721 -0.25592884
-0.052569948 -0.35063735 -0.25067264
0.030145423 -0.34022057 -0.22505802
-0.40110421 -0.20266743 -0.20098554
-0.34235233 -0.24646685 -0.23670435
-0.25700173 -0.25569755 -0.27664986
-0.15097485 -0.27171671 -0.27401689
-0.042070907 -0.25626421 -0.27725407
0.045529533 -0.24687541 -0.23839718
0.10292663 -0.21199021 -0.20399174
-0.40886688 -0.13336582 -0.21122104
-0.35206389 -0.15033637 -0.25321883
-0.27145109 -0.16292478 -0.27970183
-0.14893086 -0.14853336 -0.27857488
-0.030032612 -0.16214357 -0.27976635
0.052431732 -0.15046157 -0.25748977
0.11159321 -0.13455322 -0.21418206
-0.4200944 -0.04336518 -0.22493699
-0.36180764 -0.053364769 -0.26812926
-0.25710404 -0.051806778 -0.27808166
-0.15423754 -0.062063377 -0.29138395
-0.042856272 -0.048322719 -0.28157645
0.063784331 -0.053351343 -0.26940528
0.12315098 -0.044383373 -0.22796999
-0.43361786 0.054088894 -0.23971348
-0.37074453 0.04437964 -0.27146399
-0.2762982 0.039271347 -0.28794768
-0.024891909 0.038418438 -0.29059651
0.070979357 0.042500515 -0.27317399
0.13673764 0.053660363 -0.24217348
-0.50184494 0.18343401 -0.20630147
-0.4488647 0.15112522 -0.24900547
-0.36471531 0.14388843 -0.27085122
-0.29125294 0.11459223 -0.2959539
-0.0082190558 0.10543883 -0.29737207
0.065778635 0.14442357 -0.27397764
0.15196913 0.15030171 -0.25158259
0.20489772 0.18279271 -0.20836952
-0.51065004 0.26412797 -0.21701348
-0.46202064 0.24796753 -0.25677389
-0.37642726 0.24362765 -0.28114602
0.080920182 0.2426762 -0.28307357
0.16307822 0.24822298 -0.26000398
0.21344249 0.2601645 -0.22103563
-0.52224773 0.35598594 -0.23343535
-0.46570447 0.34806308 -0.26457521
-0.39076796 0.33042341 -0.29092005
0.089297369 0.31934977 -0.29198378
0.1659767 0.34630173 -0.26516721
0.22484626 0.35455832 -0.23859742
-0.53480804 0.45345575 -0.24704717
-0.46859357 0.44524956 -0.26163754
-0.39872563 0.40656728 -0.29947627
0.17063038 0.44413263 -0.26420283
0.23845629 0.4521026 -0.24751891
-0.60316437 0.59490848 -0.20675537
-0.55059791 0.55174381 -0.24660201
-0.4781948 0.54506314 -0.27484712
0.18130766 0.54398876 -0.27837309
0.25357825 0.55141217 -0.24864557
0.30383536 0.58080685 -0.21027513
-0.60176015 0.60443503 -0.20806968
-0.54772699 0.61594892 -0.24929997
-0.4883408 0.61240625 -0.28733578
0.18853103 0.61037374 -0.28963214
0.25271925 0.61623454 -0.25009865
0.30447343 0.60931915 -0.20832722
-0.41063488 -0.32036108 -0.12642284
-0.35503826 -0.35081005 -0.15342693
-0.25254199 -0.33242896 -0.15291114
-0.15085925 -0.32622322 -0.14847155
-0.048707236 -0.33110231 -0.15180358
0.056307863 -0.3524451 -0.15468363
0.11313316 -0.32526231 -0.12930505
-0.42178357 -0.24493396 -0.13924038
-0.37225473 -0.2604574 -0.17130892
-0.24994014 -0.27565953 -0.15277705
-0.14964131 -0.27627066 -0.15327288
-0.051212024 -0.27610505 -0.15229832
0.070069015 -0.26337782 -0.16982865
0.12544692 -0.24608931 -0.14309107
-0.4381572 -0.149196 -0.15029985
-0.37466791 -0.15886989 -0.16759215
0.076252654 -0.15638553 -0.16496748
0.14323074 -0.14990932 -0.15069304
-0.50047749 -0.0084199384 -0.10553244
-0.45925263 -0.049957834 -0.15011601
-0.38279304 -0.056912225 -0.17743325
0.088200405 -0.057408366 -0.17980865
0.16384271 -0.050420333 -0.15068026
0.20407951 -0.011474783 -0.10547104
-0.50782526 0.07030113 -0.12151486
-0.47274894 0.045131039 -0.15800703
-0.39183941 0.026295818 -0.1887147
0.092735171 0.032312572 -0.19428805
0.17402574 0.043777835 -0.16276999
0.21006915 0.061068997 -0.12673275
-0.51815832 0.15618065 -0.14141221
-0.47318223 0.14284636 -0.16645591
0.17347118 0.14266123 -0.16508949
0.22211531 0.15269563 -0.14724471
-0.53514379 0.25183865 -0.14871731
-0.47756204 0.24878913 -0.15765083
0.18033341 0.24876334 -0.16206849
0.23946121 0.25101626 -0.14984599
-0.55164021 0.35175318 -0.14780027
-0.48835292 0.33978489 -0.17405762
0.1909252 0.34051973 -0.18233086
0.25468057 0.35084581 -0.14905904
0.30090395 0.39911404 -0.1026547
-0.60551643 0.478986 -0.11840588
-0.56438631 0.44863039 -0.15274258
-0.49554774 0.42319888 -0.19106333
0.19836593 0.41336349 -0.19225176
0.26534042 0.44671503 -0.15644498
0.30682829 0.46979147 -0.12549078
-0.6132645 0.55795354 -0.13963203
-0.56664872 0.54546249 -0.16064537
0.26645344 0.54797065 -0.15791152
0.31745228 0.5556106 -0.14658667
-0.61346197 0.6140238 -0.13955908
-0.57817864 0.61691791 -0.15813224
0.28123212 0.61648965 -0.15866733
0.316659 0.61513495 -0.14261481
-0.42618084 -0.33606213 -0.041542619
-0.35311779 -0.33446261 -0.047143381
-0.25025859 -0.32620776 -0.049518444
-0.15038554 -0.3261891 -0.048190035
-0.051326267 -0.32619849 -0.048999399
0.051833194 -0.33276027 -0.047517218
0.12978749 -0.33699408 -0.041564621
-0.44733816 -0.2493903 -0.04942555
-0.35316047 -0.26922917 -0.050779726
-0.24950531 -0.27627698 -0.050080251
-0.15111147 -0.2762776 -0.048966203
-0.05062753 -0.27627799 -0.049938407
0.052055754 -0.27245769 -0.052383445
0.1526867 -0.24920855 -0.049955908
-0.46694061 -0.1496309 -0.049721908
-0.39451227 -0.18047117 -0.083538547
0.096882761 -0.18384296 -0.086086512
0.17246419 -0.14973909 -0.049371962
0.20156927 -0.10735957 -0.0074612079
-0.50547862 -0.023596419 -0.03632636
-0.48098022 -0.056935046 -0.054008003
0.18211548 -0.062315553 -0.057658877
0.207821 -0.034539409 -0.040862907
-0.51709187 0.051558774 -0.047927629
-0.47023711 0.044503152 -0.055243175
0.17293555 0.048343319 -0.049328998
0.24595252 0.048114184 -0.049143855
0.33994702 0.080299959 -0.038954716
-0.5377062 0.15100604 -0.049445763
-0.48367965 0.14604631 -0.051671188
0.18913239 0.141638 -0.05371245
0.2429415 0.1527265 -0.053882852
0.36694106 0.11929506 -0.042540066
0.44876486 0.1494278 -0.041314948
0.51538366 0.18601906 -0.036321852
-0.55176675 0.25169405 -0.048776992
-0.49427584 0.22772776 -0.063569084
0.19566265 0.21946135 -0.076653399
0.2547482 0.25276914 -0.051219977
0.48516688 0.21299949 -0.032837801
0.55312526 0.24954413 -0.041930992
-0.60274297 0.38955301 -0.029373782
-0.5693152 0.34947419 -0.049960662
0.26959738 0.3469153 -0.052564532
0.30438393 0.38189411 -0.040355057
0.58040357 0.34582862 -0.042944077
0.60298502 0.37148324 -0.031536661
-0.60999531 0.46024013 -0.045502692
-0.5694024 0.44096044 -0.055037953
0.26575536 0.44751704 -0.051907212
0.31458837 0.45308346 -0.050078556
0.57957429 0.45384517 -0.043078817
0.60310811 0.42635402 -0.033229128
-0.62803453 0.55045611 -0.050049368
-0.57702851 0.5521946 -0.050381109
0.28304464 0.55132139 -0.050870884
0.35394594 0.55938631 -0.04864414
0.4512687 0.5697217 -0.040389527
0.54164642 0.53837746 -0.040822204
-0.62251443 0.61695862 -0.048922855
-0.59047765 0.61282164 -0.054020569
0.29269522 0.61140972 -0.060416769
0.32633129 0.61659914 -0.047710102
-0.42489952 -0.3446649 0.050234023
-0.35414454 -0.34633625 0.050365504
-0.25025785 -0.32620478 0.051306438
-0.15125047 -0.32619244 0.050873883
-0.051285472 -0.32619426 0.050774951
0.054680042 -0.34405228 0.050864697
0.12933517 -0.34685162 0.049336389
-0.44702736 -0.24989483 0.050191518
-0.3531951 -0.26774523 0.05648841
-0.24974331 -0.27627352 0.054268841
-0.15033287 -0.27627134 0.052303635
-0.050817907 -0.27626863 0.054815818
0.051097155 -0.27237356 0.055974085
0.1521412 -0.24998185 0.050964534
-0.46646336 -0.14956772 0.051175628
-0.39381087 -0.1808643 0.084756628
0.097958624 -0.16948903 0.097999394
0.17206821 -0.14952183 0.050712496
0.2007215 -0.10494541 0.021350332
-0.50529087 -0.025270481 0.036060795
-0.48102289 -0.057436723 0.055206034
0.18184745 -0.061608486 0.058802564
0.20740606 -0.034436978 0.040710989
-0.51669902 0.05155357 0.04924297
-0.47093457 0.044385292 0.056957137
0.17243592 0.048355341 0.053947099
0.24709423 0.049715705 0.051500842
0.34034368 0.080589704 0.041538361
-0.53731078 0.15112032 0.050289251
-0.48398602 0.14601858 0.053926319
0.18789805 0.14328551 0.055408586
0.24030244 0.15298992 0.053865891
0.3640323 0.12128217 0.048332952
0.44790474 0.15113185 0.044726267
0.51582277 0.18599828 0.038821075
-0.55250984 0.25189525 0.049725965
-0.49445647 0.23091272 0.065019011
0.19501334 0.2182288 0.077263646
0.25217888 0.25166103 0.051377624
0.48436081 0.21337335 0.04202183
0.54994977 0.25029981 0.045399033
-0.60272717 0.38860077 0.020996153
-0.56910181 0.34969872 0.051152922
0.26841563 0.34729379 0.052852526
0.30503312 0.37883988 0.034744289
0.57694942 0.34644961 0.046220351
0.60296166 0.37254989 0.032415707
-0.6099605 0.46112251 0.045793742
-0.56975108 0.44101408 0.056495525
0.26697502 0.44478458 0.054775119
0.31293756 0.45411748 0.048583657
0.57564604 0.45345327 0.046418022
0.60313934 0.42403099 0.032528047
-0.62766069 0.55083925 0.051260374
-0.57675433 0.55214983 0.050621554
0.28273588 0.55070525 0.0515844
0.35418004 0.55991548 0.049668323
0.45094296 0.56874925 0.043197598
0.53989238 0.53800786 0.043524727
-0.62301832 0.61659712 0.049128983
-0.59034878 0.61366314 0.05948963
0.2924906 0.61208504 0.061959259
0.32597384 0.61682808 0.049010705
-0.41013265 -0.33194637 0.12097184
-0.35557652 -0.35009283 0.15282716
-0.25056577 -0.32703587 0.15016922
-0.15107107 -0.32625228 0.14883186
-0.050738484 -0.32683185 0.15032455
0.056286536 -0.35054693 0.15453635
0.11290054 -0.33454308 0.12569711
-0.42114672 -0.24469167 0.13912925
-0.37270579 -0.25957447 0.17086641
-0.24996595 -0.27605319 0.15213385
-0.14988059 -0.27627254 0.15211521
-0.051647332 -0.27600077 0.15183675
0.069719791 -0.26232114 0.17029499
0.12476563 -0.24570711 0.14268874
-0.43740043 -0.14870684 0.14992285
-0.3764658 -0.15870699 0.16637124
0.077360593 -0.1565223 0.16637018
0.14270608 -0.14934263 0.15025133
-0.45856902 -0.049152408 0.14990462
-0.38286653 -0.056263406 0.17803869
0.086417317 -0.057898182 0.17764252
0.16292687 -0.050129458 0.15041675
0.20276119 -0.012002863 0.108458
-0.50734252 0.068126872 0.12012748
-0.47262657 0.046075594 0.15776633
-0.39090091 0.030909343 0.18896845
0.09466175 0.013825262 0.18965347
0.1732883 0.044501469 0.16202633
0.20894492 0.062312618 0.12570694
-0.51783401 0.15570614 0.14022
-0.47342235 0.14211841 0.16753073
0.17468351 0.14269389 0.1653865
0.22010544 0.15400547 0.14570859
-0.53435862 0.25105247 0.14908147
-0.47627953 0.24906226 0.15676104
0.17985325 0.24852563 0.16061227
0.23737796 0.25227761 0.1501355
-0.55071133 0.35145068 0.1478124
-0.48798871 0.34138572 0.17352244
0.18960674 0.33880875 0.18075238
0.252327 0.35144541 0.14914055
0.30085069 0.3960413 0.10512763
-0.60414171 0.47683215 0.11873571
-0.56384331 0.44918939 0.15261276
-0.49446988 0.42300358 0.19122422
0.19584808 0.4084051 0.19382651
0.26472458 0.44760525 0.15564163
0.3061851 0.47238916 0.12159391
-0.61312908 0.55820918 0.13956907
-0.56627375 0.54647636 0.16101323
0.26741323 0.54721868 0.15805371
0.31575465 0.55585939 0.14376809
-0.61298639 0.61382169 0.13850875
-0.57826447 0.61678505 0.159237
0.28149852 0.61639088 0.15814252
0.31641087 0.6147759 0.14237051
-0.32970977 -0.32032081 0.22069287
-0.24543624 -0.34520704 0.24900252
-0.15009716 -0.35016653 0.25918445
-0.054758728 -0.34550464 0.25052914
0.031907219 -0.32128641 0.22280575
-0.34210095 -0.24679361 0.2353878
-0.25555265 -0.25471243 0.2759769
-0.15062627 -0.27038249 0.27627838
-0.043877035 -0.25575203 0.27738392
0.044893742 -0.2464868 0.23749934
0.10255332 -0.21423404 0.20337491
-0.4094553 -0.12855762 0.21035798
-0.35174787 -0.15029986 0.25169715
-0.27124169 -0.1632816 0.27986625
-0.14968629 -0.14812694 0.27641076
-0.028965861 -0.16300727 0.28016329
0.051986352 -0.15028495 0.25619087
0.11111654 -0.13523553 0.21264558
-0.41968891 -0.042887941 0.22384962
-0.36080658 -0.053164579 0.26717827
-0.25439599 -0.050511811 0.27777982
-0.15057266 -0.06118618 0.29107592
-0.043131858 -0.049885832 0.27854621
0.063042998 -0.052948684 0.26853523
0.12259285 -0.044401571 0.22721286
-0.43288094 0.053768922 0.23877616
-0.37000829 0.044569917 0.27156788
-0.2694025 0.038653228 0.28902557
-0.18310033 0.0098407567 0.29801962
-0.025688518 0.037525531 0.29043812
0.070861489 0.043757752 0.27326402
0.13599083 0.053418189 0.24171393
-0.50369138 0.18951182 0.20347029
-0.44801795 0.15147312 0.24890198
-0.3665753 0.14329346 0.27233744
-0.28844345 0.11234878 0.29609248
-0.012471773 0.11303991 0.29676092
0.065475792 0.14361247 0.27325386
0.15149172 0.15039362 0.25025943
0.20501785 0.17991623 0.20487973
-0.50995904 0.26427492 0.21604472
-0.461752 0.2481972 0.25650299
-0.37597701 0.24365069 0.27988246
0.077507138 0.24353725 0.28430852
0.16262421 0.2485314 0.25902337
0.21246621 0.26136535 0.2194446
-0.52162218 0.35604078 0.23293658
-0.46564189 0.34801635 0.26425564
-0.39110813 0.33626014 0.29027563
0.088847063 0.32540986 0.29260296
0.16591702 0.34725788 0.26532397
0.22364821 0.3548362 0.2370238
-0.53473431 0.45341781 0.24608438
-0.46836835 0.44436228 0.26308787
0.16890527 0.44514912 0.26439852
0.23668413 0.45196298 0.24790037
-0.60242069 0.59294403 0.20656818
-0.54972386 0.55160064 0.24682532
-0.47779414 0.54496628 0.27357528
0.18125568 0.5451358 0.27758583
0.25294957 0.55166054 0.24777707
0.30407643 0.58408022 0.20845582
-0.60040689 0.60369718 0.20938733
-0.54735166 0.61606151 0.24864326
-0.4887692 0.61190778 0.28627825
0.19082044 0.61159009 0.28845996
0.25190586 0.61636305 0.24957189
0.30484498 0.60783643 0.20948897
-0.13873973 -0.30710036 0.30191061
-0.095500648 -0.30181509 0.30109984
-0.2225399 -0.22557588 0.3056103
-0.15030076 -0.23919448 0.3091037
-0.077346846 -0.22646227 0.30663654
-0.30503866 -0.11626715 0.3040677
-0.24145567 -0.1448366 0.3155497
-0.15042467 -0.1494385 0.32730392
-0.057411306 -0.14548261 0.31657013
0.0075296923 -0.11923415 0.3046867
-0.31862578 -0.039863706 0.3103672
-0.25001898 -0.049518663 0.33326742
-0.15029381 -0.048608076 0.34716219
-0.050182961 -0.04993606 0.33503753
0.021462362 -0.039453425 0.31178656
-0.33632603 0.054375693 0.32218069
-0.24942741 0.05122574 0.35241786
-0.14993066 0.049941767 0.36425069
-0.050664224 0.049868543 0.35338178
0.039154455 0.05472184 0.32402349
0.10050374 0.086077206 0.30008465
-0.40808484 0.17116855 0.30722785
-0.34757045 0.15136234 0.33759466
-0.25033119 0.14965954 0.36988485
-0.15029722 0.14359628 0.37957969
-0.048237793 0.14831942 0.37089744
0.048785016 0.15153944 0.33964282
0.11016305 0.16971949 0.30922684
-0.42133448 0.25787255 0.3180292
-0.34934708 0.25041825 0.35570943
-0.26236135 0.24210352 0.37370667
-0.15084596 0.24500518 0.36823118
-0.0390472 0.24100482 0.37341753
0.049511321 0.25093582 0.35875145
0.12348802 0.25525615 0.32029155
-0.43567941 0.35497424 0.33111864
-0.3578302 0.34812945 0.36439565
-0.25278476 0.35133398 0.37469867
-0.15030134 0.34442481 0.38519749
-0.048581708 0.35320199 0.37580034
0.059546102 0.34693596 0.36527777
0.13818274 0.35443839 0.33322006
-0.50747818 0.48182216 0.30712271
-0.44596022 0.45267752 0.34393364
-0.36230996 0.44634271 0.36672556
-0.262784 0.44163141 0.38807231
-0.15177657 0.42088819 0.39496467
-0.036887426 0.4399395 0.38878575
0.061684329 0.44475037 0.36812907
0.14678597 0.45156208 0.34633204
0.20790678 0.47528473 0.30902836
-0.51576847 0.55902857 0.31837022
-0.45140126 0.54915172 0.35512984
-0.35785374 0.5482204 0.37549558
-0.28518212 0.52241492 0.39541188
-0.012996152 0.51937956 0.39572462
0.059866492 0.54649138 0.37791529
0.15416552 0.54941201 0.35600024
0.21853663 0.55763704 0.32100946
-0.5157789 0.61303419 0.31853598
-0.45420754 0.61648214 0.35383829
-0.37644902 0.61436486 0.38669586
0.078418724 0.61346251 0.38729641
0.15531352 0.616611 0.35679147
0.21824712 0.61461866 0.32006803
-0.21582551 0.18748832 0.4031578
-0.14772108 0.17755789 0.40512627
-0.081637047 0.1857163 0.40374258
-0.30868122 0.28996873 0.4022221
-0.23792516 0.2605584 0.41042188
-0.15045646 0.2510103 0.41655046
-0.059540872 0.259482 0.41079235
0.0094391983 0.28576368 0.40362936
-0.32069173 0.36519361 0.40927532
-0.25028747 0.35060969 0.42612895
-0.15074314 0.35141543 0.43706223
-0.050402969 0.35078192 0.42762902
0.022603113 0.36256957 0.41001138
-0.40303859 0.48873016 0.40328428
-0.34026846 0.45520538 0.42035887
-0.24702336 0.45247957 0.44269586
-0.15029322 0.45189744 0.44781753
-0.052377384 0.45319748 0.44315043
0.043145165 0.45425022 0.4216041
0.10579351 0.4856607 0.40381387
-0.4144814 0.56613541 0.41008195
-0.34784403 0.55128354 0.43519312
-0.25012287 0.55162984 0.4543899
-0.15092312 0.55042094 0.46464169
-0.050501272 0.55055988 0.45566016
0.04755494 0.55289733 0.43695185
0.11704222 0.56229842 0.41097844
-0.41587517 0.61035788 0.41071272
-0.34600198 0.6157648 0.43085909
-0.2500166 0.61569017 0.45804265
-0.14977102 0.61568999 0.46936628
-0.049465381 0.61555487 0.46014035
0.046568979 0.61616826 0.43243706
0.1194219 0.6116364 0.41181675
-0.15554371 0.59249943 0.50221813
-0.07053405 0.59195119 0.50081819
-0.14925081 0.60405213 0.50110793
-0.094034374 0.60503042 0.50126612
