# .PCD v0.7 - Point Cloud Data file format
VERSION 0.7
FIELDS x y z
SIZE 4 4 4
TYPE F F F
COUNT 1 1 1
WIDTH 492
HEIGHT 1
VIEWPOINT 0 0 0 1 0 0 0
POINTS 492
DATA ascii
-0.027842021 -0.4350355 -0.40308985
0.028563563 -0.43439838 -0.4027192
-0.029469976 -0.34997708 -0.40302691
0.028101509 -0.35167021 -0.40287501
-0.029622639 -0.24975704 -0.40306264
0.02774089 -0.24990836 -0.40307918
-0.028846364 -0.14905506 -0.40312377
0.028931528 -0.14921628 -0.40305084
-0.027999047 -0.050021052 -0.40305346
0.028738877 -0.050951336 -0.4030309
-0.028717957 0.050177757 -0.40317476
0.029260147 0.049314898 -0.40293241
-0.029836187 0.15004791 -0.4030309
0.028736472 0.14937036 -0.40304783
-0.028882617 0.25070807 -0.40301338
0.028105406 0.25066888 -0.40290198
-0.029169634 0.35094729 -0.40292829
0.028542921 0.35069889 -0.40291408
-0.02966621 0.43467098 -0.4027324
0.02683538 0.43563223 -0.40288508
-0.2316519 -0.4425334 -0.32208356
-0.14816685 -0.45233256 -0.35206735
-0.051906403 -0.45842358 -0.3628214
0.052267399 -0.45804325 -0.36309502
0.1483013 -0.45249093 -0.3519294
0.2310091 -0.44219667 -0.32252997
-0.23362519 -0.35055014 -0.32423857
-0.15096413 -0.34961256 -0.3672561
-0.057374191 -0.34948355 -0.39093289
0.057175878 -0.35002929 -0.39138407
0.15108445 -0.34983149 -0.36726242
0.2333713 -0.34947848 -0.32447985
-0.23361906 -0.25011805 -0.32427609
-0.15106431 -0.24981388 -0.36686113
-0.05623088 -0.24949226 -0.39048803
0.05598468 -0.25018373 -0.3907893
0.15063499 -0.24941905 -0.36707228
0.23333365 -0.24936938 -0.32448676
-0.23369777 -0.14962783 -0.3240281
-0.15069053 -0.14979114 -0.36632603
-0.0562599 -0.14968297 -0.38994619
0.056324646 -0.14936744 -0.39005935
0.15124394 -0.14957038 -0.36639586
0.23325031 -0.14931439 -0.32456723
-0.2331925 -0.049777482 -0.32448104
-0.15046237 -0.049518511 -0.36541006
-0.056600425 -0.049220789 -0.38854131
0.057255112 -0.049389645 -0.38864422
0.15069254 -0.049495924 -0.36506897
0.23344989 -0.050052233 -0.32434204
-0.23312867 0.050008487 -0.32389048
-0.15056828 0.050258223 -0.36365151
-0.055687211 0.050502982 -0.3874082
0.056141768 0.049867827 -0.38752428
0.15118867 0.050176084 -0.36353981
0.23291467 0.049332183 -0.32446331
-0.23351422 0.14999664 -0.32390532
-0.15114538 0.15011887 -0.36184141
-0.055679403 0.15120731 -0.38539824
0.055067055 0.15054625 -0.38560238
0.1501981 0.14979549 -0.36239079
0.23292293 0.15004247 -0.32437503
-0.23328078 0.25043648 -0.32378075
-0.1508728 0.25040129 -0.36045578
-0.05536028 0.25027379 -0.38327515
0.055448093 0.25130445 -0.38387841
0.15065953 0.25051501 -0.36049661
0.23286349 0.24951175 -0.3241134
-0.23349757 0.35073006 -0.32345149
-0.15011676 0.35040459 -0.35800263
-0.055036724 0.35084537 -0.38104191
0.0552499 0.35155776 -0.38145226
0.15110676 0.35048053 -0.35744447
0.233431 0.35029107 -0.32362315
-0.23023495 0.44329733 -0.32180524
-0.15035672 0.4464272 -0.35340476
-0.053461567 0.44748795 -0.37772024
0.053380214 0.44737449 -0.37787449
0.15058944 0.44620818 -0.35336018
0.23029283 0.44264874 -0.32224953
-0.3225109 -0.44321346 -0.23088105
-0.25587377 -0.461633 -0.25546488
-0.15056662 -0.47045326 -0.25028238
-0.050673664 -0.47088331 -0.24972127
0.049725454 -0.47045746 -0.25026104
0.149441 -0.47054648 -0.24999571
0.25549239 -0.46104449 -0.25604945
0.32326743 -0.44319955 -0.22978705
-0.32429132 -0.35049096 -0.23358516
-0.2784619 -0.34952667 -0.27813786
-0.19486159 -0.36815155 -0.29479519
0.1936533 -0.33272904 -0.29361361
0.27909589 -0.34985074 -0.27842924
0.32467866 -0.35039294 -0.23334149
-0.32438058 -0.24987851 -0.23346245
-0.27800936 -0.24997823 -0.27765599
-0.18928139 -0.24758038 -0.29565725
0.19446731 -0.23036349 -0.2951929
0.27829307 -0.24986969 -0.27854568
0.32436964 -0.24999672 -0.23355055
-0.32430786 -0.15033808 -0.23297632
-0.27723029 -0.149914 -0.27726123
-0.19161958 -0.15365985 -0.29642931
0.18838803 -0.16210504 -0.29762581
0.27768445 -0.14962371 -0.27727339
0.3247647 -0.14925222 -0.23326503
-0.32421502 -0.050094008 -0.23332085
-0.27526644 -0.048722927 -0.27545482
-0.19326594 -0.053079974 -0.29546663
0.19426425 -0.027297208 -0.29534021
0.27561489 -0.049540218 -0.27551943
0.32461867 -0.049884029 -0.23327148
-0.32432452 0.050502725 -0.23310018
-0.27358866 0.050813135 -0.27377045
-0.19341394 0.055203754 -0.29535869
0.19273894 0.045946479 -0.29659265
0.27393067 0.050619856 -0.27434289
0.32463667 0.049425606 -0.23335533
-0.32380754 0.15009323 -0.2332059
-0.27161098 0.15042266 -0.27180269
-0.19369331 0.14333034 -0.29499394
0.19130717 0.13897327 -0.29612023
0.27190173 0.15079339 -0.27286741
0.32417557 0.14990689 -0.2333551
-0.32407469 0.25010005 -0.23292516
-0.27058744 0.25146192 -0.26957604
-0.19281951 0.2468542 -0.29606411
0.19455789 0.26434696 -0.29494065
0.27078462 0.25160566 -0.27071241
0.32408035 0.25002742 -0.23286781
-0.32363012 0.35044765 -0.23304974
-0.26720023 0.35084793 -0.26757342
-0.1936218 0.35387006 -0.29624113
0.19333789 0.35148224 -0.29623389
0.2674565 0.3504588 -0.26814255
0.32480124 0.35069975 -0.23165891
-0.32204714 0.44271848 -0.22960845
-0.26645327 0.44833735 -0.26561868
-0.19359991 0.44287345 -0.29671249
0.19220324 0.4362095 -0.29701349
0.26591805 0.44846308 -0.26594928
0.32174107 0.44310883 -0.23087114
-0.35202464 -0.4528212 -0.1476154
-0.25071228 -0.47062325 -0.15046708
-0.15042421 -0.47017118 -0.15003638
-0.049739871 -0.46999413 -0.14947712
0.049534824 -0.4702251 -0.1502427
0.14974408 -0.47011611 -0.14948049
0.25020865 -0.47058827 -0.15002699
0.35151806 -0.45309559 -0.14745602
-0.36670378 -0.35014352 -0.15119337
-0.29427925 -0.35469002 -0.19140877
0.2974202 -0.33955616 -0.19161062
0.36703774 -0.35056263 -0.15194111
-0.36630717 -0.24958949 -0.15127562
-0.29380909 -0.23962036 -0.19331507
0.29456422 -0.23907238 -0.19446895
0.36674762 -0.24976666 -0.15177253
-0.36630487 -0.14935382 -0.15039572
-0.29499325 -0.14835428 -0.19279242
0.29683119 -0.14837714 -0.19310845
0.36607179 -0.14908832 -0.15211612
-0.36472809 -0.049378585 -0.15066352
-0.29605958 -0.041217137 -0.19270541
0.29323632 -0.08119826 -0.19437282
0.36408371 -0.049933098 -0.15164147
-0.36378515 0.050238721 -0.15037856
-0.29526097 0.061430708 -0.19339554
0.29601514 0.054199055 -0.19017783
0.36324942 0.049829733 -0.15218148
-0.36225688 0.15050153 -0.15074138
-0.29626012 0.14201038 -0.19229725
0.29604468 0.14702962 -0.19528763
0.36210108 0.1506936 -0.15153691
-0.35996068 0.25087956 -0.15054202
-0.29502046 0.25378656 -0.19485396
0.29566845 0.25631392 -0.19280466
0.35954785 0.25051662 -0.15181033
-0.35807815 0.35051405 -0.15027033
-0.29587665 0.35506684 -0.19477674
0.29478487 0.35383832 -0.19502653
0.35722446 0.35138893 -0.15074037
-0.35326084 0.44616336 -0.15070622
-0.29674861 0.44089955 -0.19336307
0.29643553 0.43696526 -0.19258295
0.35323453 0.4466863 -0.15061849
-0.40274459 -0.43433493 -0.028159887
-0.36271256 -0.45869371 -0.051535331
-0.25040019 -0.47004572 -0.050135463
-0.15108427 -0.47019923 -0.05029837
-0.050063595 -0.47048971 -0.050004005
0.049435042 -0.47043651 -0.049359255
0.14978352 -0.46975267 -0.050274201
0.2497092 -0.47028276 -0.050181717
0.36179709 -0.45919424 -0.051752888
0.40306482 -0.43435258 -0.028563781
-0.40273777 -0.35044643 -0.028164597
-0.39127067 -0.34998152 -0.057268422
0.39040661 -0.35847437 -0.064336419
0.4413541 -0.32933316 -0.04154567
0.52715421 -0.31079516 -0.037539274
-0.40280578 -0.2505376 -0.028579295
-0.39071822 -0.25019211 -0.057522852
0.38908935 -0.24211289 -0.065607324
0.43963763 -0.26873022 -0.043730527
0.56141138 -0.26530287 -0.04796765
0.62244445 -0.23281527 -0.042524222
-0.40266758 -0.14948557 -0.02833399
-0.38981414 -0.15027267 -0.057393622
0.38733318 -0.14855519 -0.060513996
0.40328971 -0.14959548 -0.03182644
0.59370834 -0.16188057 -0.030731479
0.64390653 -0.15012033 -0.045939688
-0.40275139 -0.050239217 -0.027766405
-0.38809708 -0.049795616 -0.056918722
0.38582945 -0.049275011 -0.059156124
0.40307337 -0.049799841 -0.032766409
0.59971696 -0.052716479 -0.027647763
0.64606583 -0.050111189 -0.044907477
-0.40275249 0.04909946 -0.028347144
-0.3869507 0.051275622 -0.056582399
0.38430205 0.050190281 -0.058122817
0.40323803 0.049738951 -0.031356242
0.59966618 0.05724423 -0.032644715
0.64604014 0.049588878 -0.045311704
-0.4028005 0.15032077 -0.028626401
-0.38563517 0.15126742 -0.056542832
0.38287908 0.14978217 -0.058276758
0.4033744 0.15036349 -0.029545274
0.59383518 0.15953566 -0.029774431
0.64393955 0.15023892 -0.046136305
-0.40280154 0.250664 -0.029283976
-0.38367712 0.25068447 -0.055320576
0.37644929 0.24707413 -0.061238423
0.43965724 0.26977563 -0.043807641
0.56237733 0.26587459 -0.047771048
0.62279445 0.23294905 -0.042584565
-0.40277198 0.35097069 -0.028313326
-0.38110659 0.3505438 -0.055171415
0.37706172 0.35674015 -0.058331862
0.44238177 0.32944918 -0.042307567
0.52829474 0.31122121 -0.037965734
-0.40252668 0.43515882 -0.029531538
-0.37778774 0.44688234 -0.053014345
0.3775872 0.44839168 -0.053915653
0.40285304 0.43490133 -0.027842296
-0.40265787 -0.43418774 0.029852467
-0.36273569 -0.45855552 0.051778834
-0.25040272 -0.46979824 0.049444336
-0.15109144 -0.47003743 0.049565494
-0.050136849 -0.47044829 0.049284711
0.049410649 -0.47026229 0.04897223
0.1497018 -0.46967947 0.049383197
0.24980964 -0.47029051 0.049569838
0.36152902 -0.45949143 0.051217876
0.40276396 -0.43284079 0.028328417
-0.4028782 -0.35114902 0.028341105
-0.39124244 -0.3494435 0.057452183
0.38975739 -0.35929283 0.062026143
0.4431254 -0.3281019 0.043990768
0.52676767 -0.31089067 0.038635626
-0.40292093 -0.25061515 0.028082345
-0.39059591 -0.25002682 0.056906946
0.38707605 -0.2429762 0.063198633
0.44397515 -0.27171662 0.048294075
0.56037962 -0.26343292 0.051040146
0.62299389 -0.23229744 0.043004952
-0.40297443 -0.15041304 0.029586665
-0.3896659 -0.14983591 0.055812359
0.38628474 -0.14898486 0.05709796
0.40387362 -0.14854793 0.031202903
0.59345132 -0.16899425 0.038726039
0.64182913 -0.14912456 0.048935693
-0.40281859 -0.05003925 0.03019923
-0.3880811 -0.050096277 0.056481007
0.3853609 -0.049387038 0.055333324
0.40395147 -0.050163284 0.030083807
0.5998401 -0.04676893 0.025671674
0.64227206 -0.050107479 0.048077058
-0.40292051 0.050733201 0.029468466
-0.38682246 0.05043193 0.055337597
0.38373545 0.05009722 0.055636525
0.40391073 0.049820952 0.031266678
0.59970719 0.051133633 0.027477486
0.64231485 0.049787547 0.048149023
-0.402906 0.15081395 0.027798926
-0.38606295 0.15047213 0.055916138
0.38159648 0.15012358 0.056045394
0.40384847 0.14953452 0.033378217
0.5937807 0.16740584 0.039827108
0.64145589 0.14904097 0.048232302
-0.40283078 0.25070637 0.028496798
-0.38305163 0.25088978 0.0552812
0.37682942 0.24701439 0.058314003
0.44432962 0.27306914 0.047624636
0.56121707 0.2637997 0.051298354
0.62258786 0.23353356 0.04301212
-0.40271816 0.34978026 0.028547781
-0.38099065 0.35084185 0.055111304
0.3770982 0.35731992 0.057648472
0.44447416 0.32777885 0.044193838
0.5283187 0.31119263 0.038825583
-0.40252244 0.43434945 0.0289189
-0.37766436 0.44718224 0.052948732
0.37774873 0.44828603 0.052453756
0.40288916 0.43705866 0.029503182
-0.35169876 -0.45304814 0.14796069
-0.25062606 -0.47067127 0.15038049
-0.15039356 -0.47019348 0.15001874
-0.049725689 -0.47001857 0.14947438
0.04950517 -0.47017798 0.15026595
0.14975524 -0.47013953 0.1494901
0.25027499 -0.47054031 0.15014194
0.35120943 -0.45291516 0.14814155
-0.36682361 -0.3504096 0.15110102
-0.29447567 -0.34592572 0.19226205
0.29389369 -0.37707466 0.18713246
0.36602259 -0.35038611 0.15191641
-0.36640587 -0.24988379 0.15102774
-0.29592571 -0.22378734 0.18939257
0.29328343 -0.24305326 0.19404036
0.36475781 -0.24936016 0.15212874
-0.36594114 -0.14978807 0.15058257
-0.29516008 -0.13957912 0.19370659
0.29462925 -0.13885948 0.19571584
0.36389515 -0.14883567 0.1524221
-0.36447608 -0.049740829 0.15086767
-0.29508853 -0.04279542 0.19410948
0.29737654 -0.049096752 0.19330582
0.36210409 -0.049957372 0.15177204
-0.36373952 0.050069448 0.15028958
-0.2959286 0.080212541 0.1934157
0.29606596 0.04512763 0.19287935
0.36116657 0.049241971 0.1522819
-0.36223644 0.15037049 0.15034051
-0.29664636 0.15816005 0.19483981
0.29539886 0.15171485 0.19429296
0.36030272 0.15003002 0.15163349
-0.36005571 0.25055721 0.15100944
-0.2956585 0.24913359 0.19398399
0.29498246 0.26318702 0.19543037
0.35769767 0.25038087 0.15164495
-0.35754269 0.35068187 0.1504375
-0.29554206 0.35528642 0.19292119
0.29659852 0.35434133 0.19455935
0.35654837 0.35163909 0.15106827
-0.35321775 0.44627339 0.15041485
-0.29576772 0.43323576 0.19448118
0.29784271 0.43488619 0.19347222
0.35325244 0.44653952 0.15039518
-0.32258749 -0.44290605 0.23087259
-0.25577852 -0.46153364 0.25574657
-0.15058444 -0.47043613 0.25033548
-0.050714377 -0.4708136 0.2496969
0.049781691 -0.470577 0.25033301
0.14937577 -0.47056848 0.24998268
0.25509951 -0.46121094 0.2560069
0.32211933 -0.44310212 0.23089375
-0.32468459 -0.35006949 0.23286653
-0.27923432 -0.34960827 0.27747789
-0.19579358 -0.33770916 0.29314274
0.1916402 -0.33280492 0.29630008
0.27829012 -0.34921485 0.27871349
0.32370794 -0.35051346 0.23347861
-0.3247433 -0.24975245 0.23256809
-0.27792275 -0.24938305 0.27789298
-0.18769436 -0.26479554 0.29922488
0.19323422 -0.25317207 0.29464796
0.27796105 -0.24961363 0.27849752
0.32387301 -0.2501145 0.23327641
-0.32438427 -0.14975378 0.23313212
-0.27708513 -0.15000732 0.27758574
-0.1946605 -0.15082468 0.29613081
0.19116442 -0.15077525 0.29654667
0.27750835 -0.14941989 0.27754486
0.32359093 -0.15001065 0.23348683
-0.32472157 -0.049636584 0.23266371
-0.27678269 -0.049002632 0.27513251
-0.19183645 -0.047104605 0.29589218
0.19181627 -0.046331428 0.29615822
0.27583519 -0.049975459 0.27463549
0.32405594 -0.050200287 0.2329545
-0.32444456 0.050282333 0.23277712
-0.27378759 0.050886523 0.27382067
-0.1939313 0.061171629 0.29545468
0.19336495 0.049956802 0.29521835
0.27343234 0.050134607 0.27380791
0.3235341 0.049672909 0.23344477
-0.32470572 0.15017557 0.23195605
-0.27206802 0.15001366 0.27231482
-0.19506368 0.15826623 0.29538068
0.19363642 0.16322927 0.2952154
0.27169803 0.15003687 0.27244577
0.3233085 0.15032463 0.2333367
-0.32419384 0.25071463 0.2320419
-0.27073628 0.25128666 0.26954958
-0.19337201 0.24654068 0.29599503
0.19396135 0.25696301 0.29633406
0.27067399 0.25120869 0.2698932
0.32337549 0.25039536 0.23334052
-0.32398415 0.35045928 0.23245113
-0.26759955 0.35127413 0.26748878
-0.19378847 0.34769925 0.29511511
0.19485712 0.33654919 0.29434898
0.26693529 0.35130185 0.26833031
0.32380295 0.34972209 0.23253682
-0.32259712 0.44286859 0.22949106
-0.2666207 0.4481914 0.26527038
-0.19375072 0.43878156 0.2963872
0.19236977 0.4363789 0.29626045
0.26570183 0.44815841 0.26660126
0.3214314 0.44361103 0.23047157
-0.23135787 -0.44246334 0.32221267
-0.14828029 -0.45220843 0.35197312
-0.051923372 -0.45870888 0.36259308
0.05159317 -0.45825091 0.36309463
0.14785413 -0.45219374 0.35204154
0.23091342 -0.44225124 0.32227647
-0.2340481 -0.3497116 0.32371354
-0.150714 -0.35005265 0.36728132
-0.057070564 -0.34987473 0.39111
0.055686273 -0.35007754 0.39114839
0.15110342 -0.35017502 0.36723092
0.23292279 -0.34948376 0.32456493
-0.23363616 -0.24992812 0.32424268
-0.15172225 -0.24987002 0.36653104
-0.056303885 -0.24974497 0.39024937
0.055390183 -0.24997033 0.39054826
0.14992739 -0.24986283 0.36721647
0.23257063 -0.24906752 0.32465205
-0.23302282 -0.14965691 0.32440478
-0.15072699 -0.14957562 0.36618567
-0.055409655 -0.14950719 0.38993749
0.057201747 -0.14902025 0.38992047
0.15172631 -0.14969036 0.36609372
0.23300987 -0.14946516 0.3244051
-0.23333469 -0.049800836 0.32418868
-0.14979129 -0.049289349 0.36547467
-0.055177871 -0.049163371 0.38857037
0.056545023 -0.049830571 0.38865373
0.15049891 -0.04977775 0.3650457
0.23387326 -0.049965471 0.32371733
-0.23302186 0.049800921 0.32422248
-0.15064146 0.050323468 0.36338592
-0.055419423 0.050871879 0.38724881
0.056324475 0.04918677 0.38726199
0.15142924 0.050004359 0.36319917
0.23263529 0.049611513 0.32459271
-0.23299775 0.15039605 0.32422686
-0.15113927 0.14986934 0.36203051
-0.054959491 0.15126206 0.38559362
0.055202741 0.15052144 0.38536951
0.14985211 0.1499839 0.36238149
0.23233852 0.15011722 0.32430345
-0.23354942 0.25055304 0.32336721
-0.15057658 0.2503913 0.3601298
-0.054877222 0.25025362 0.38346127
0.054485664 0.25110376 0.38404331
0.150335 0.25084639 0.36051491
0.23292774 0.24983402 0.32392445
-0.23303373 0.35033691 0.32346436
-0.15027776 0.35058856 0.35778356
-0.05431091 0.35140163 0.3807604
0.054688632 0.35151365 0.38120529
0.1510582 0.35043529 0.35738996
0.23264194 0.35043183 0.32387787
-0.23013578 0.44338441 0.32158807
-0.15037817 0.44635147 0.35329288
-0.052969996 0.44771042 0.37777352
0.053456087 0.44750124 0.37774238
0.15078729 0.44627336 0.35315526
0.22975478 0.44293568 0.32237542
-0.029855348 -0.43462068 0.40283599
0.028093994 -0.43364817 0.40296233
-0.028939834 -0.35022384 0.4029735
0.0298256 -0.35027245 0.4030036
-0.028875535 -0.25022963 0.40307307
0.031529956 -0.24845086 0.40287814
-0.028618922 -0.14939427 0.40309286
0.030248031 -0.15052195 0.40293825
-0.030227622 -0.049921274 0.40297833
0.029592419 -0.050338805 0.40309021
-0.028421672 0.049380336 0.40306917
0.030902933 0.049325697 0.40289623
-0.028720459 0.14952609 0.40309736
0.030697424 0.14877029 0.40290308
-0.028895648 0.25082549 0.40303582
0.029448636 0.24875838 0.40295538
-0.031149417 0.34969741 0.40278652
0.028602028 0.35045126 0.40309319
-0.027564436 0.43416595 0.40304074
0.029838627 0.43563649 0.40273544
