# .PCD v0.7 - Point Cloud Data file format
VERSION 0.7
FIELDS x y z
SIZE 4 4 4
TYPE F F F
COUNT 1 1 1
WIDTH 990
HEIGHT 1
VIEWPOINT 0 0 0 1 0 0 0
POINTS 990
DATA ascii
-0.20706744 -0.60388309 -0.50301886
-0.13651589 -0.6208325 -0.50879061
-0.048899274 -0.62708431 -0.51244193
0.04127536 -0.62059772 -0.50942361
0.11165725 -0.61174238 -0.50270456
-0.20885175 -0.55132109 -0.50379664
-0.14490972 -0.54968727 -0.51149064
-0.049763221 -0.5493474 -0.51939082
0.048129469 -0.55030823 -0.51280886
0.1117015 -0.55330735 -0.50422102
-0.20681722 -0.44367048 -0.50344151
-0.14379683 -0.44829395 -0.51069534
-0.048179958 -0.44976142 -0.51825088
0.047103148 -0.44797647 -0.51229239
0.11085752 -0.4476181 -0.50421959
-0.20675996 -0.35094437 -0.50381315
-0.14329961 -0.35070619 -0.51080847
-0.049065541 -0.35015938 -0.51780862
0.04577069 -0.34999529 -0.51191133
0.1102137 -0.35298041 -0.50542802
-0.20694557 -0.2596862 -0.50413501
-0.14479974 -0.25379604 -0.51119214
-0.049437709 -0.25113475 -0.51894534
0.047503415 -0.25215551 -0.51245713
0.11290937 -0.25802127 -0.50469214
-0.20809494 -0.15699133 -0.50306284
-0.14510852 -0.15316275 -0.51105767
-0.048542418 -0.15259247 -0.51925236
0.046862863 -0.15288098 -0.51282257
0.11243629 -0.15683974 -0.50465727
-0.20549533 -0.054297347 -0.50531167
-0.14512883 -0.052289724 -0.51109511
-0.048706315 -0.051549379 -0.51962125
0.047766533 -0.051949408 -0.51305717
0.11383364 -0.055318844 -0.50479341
-0.20836076 0.051467497 -0.50321728
-0.14691584 0.050950509 -0.51112723
-0.049036045 0.051249869 -0.51958507
0.047663555 0.051392399 -0.51311207
0.11293272 0.049631529 -0.50474006
-0.20662302 0.1580648 -0.50464213
-0.14551298 0.15264563 -0.51111531
-0.049657371 0.15194093 -0.51914209
0.047680102 0.15310992 -0.51275986
0.11307902 0.15457125 -0.50496036
-0.20633875 0.25317344 -0.50376886
-0.14366025 0.25260577 -0.51102585
-0.048932809 0.25159073 -0.51868606
0.046577346 0.25219071 -0.51216084
0.11019827 0.25228497 -0.50525117
-0.20641734 0.34597257 -0.50355864
-0.14318003 0.34968832 -0.51060796
-0.049259637 0.34977403 -0.51778013
0.046106886 0.34856156 -0.51233059
0.11198293 0.3476485 -0.50413781
-0.20742032 0.44564918 -0.5040943
-0.14564857 0.44748831 -0.51074076
-0.050079696 0.44941184 -0.51854193
0.047024276 0.44794768 -0.51261973
0.1122004 0.44494537 -0.50380492
-0.20921627 0.55679315 -0.50362271
-0.14504556 0.55070788 -0.51168829
-0.049296055 0.55059034 -0.5194189
0.046054251 0.55000341 -0.51300544
0.11058486 0.55193156 -0.50534618
-0.2109199 0.64460599 -0.50331098
-0.14525117 0.64957207 -0.51285899
-0.049295031 0.65237302 -0.52055418
0.048581392 0.64939106 -0.51379359
0.11362267 0.64620876 -0.5047819
-0.33131498 -0.63269794 -0.42198551
-0.24752317 -0.6524024 -0.44751856
-0.15259843 -0.66960269 -0.45595208
-0.049827665 -0.67936629 -0.45310667
0.052282657 -0.67196709 -0.45554569
0.14805807 -0.65400332 -0.44955242
0.23618133 -0.63394624 -0.42405486
-0.33991513 -0.55187529 -0.42926443
-0.2530899 -0.54904062 -0.47362158
-0.17253499 -0.55175585 -0.48874161
-0.044299457 -0.54655367 -0.47411418
0.071227312 -0.54982692 -0.48935103
0.15447357 -0.5504849 -0.47673196
0.24558048 -0.54998273 -0.43178856
0.30353379 -0.57895386 -0.40511227
-0.33896548 -0.44905823 -0.42852241
-0.25369793 -0.44865355 -0.47094426
-0.16780013 -0.45201412 -0.48878598
-0.045892343 -0.45189101 -0.47885942
0.065257058 -0.45398 -0.4896791
0.15400849 -0.44979718 -0.47622842
0.24467134 -0.44868585 -0.43101498
-0.33840162 -0.35030207 -0.42840615
-0.25390598 -0.35008988 -0.47049049
-0.16639978 -0.34698832 -0.48802984
-0.049804509 -0.34278294 -0.47922206
0.065262504 -0.3469221 -0.49003431
0.15423217 -0.34985554 -0.4743202
0.24394339 -0.35054156 -0.4314554
-0.33837849 -0.25133079 -0.42931193
-0.25313649 -0.2500971 -0.47134563
-0.16415665 -0.24059218 -0.48763868
-0.052268576 -0.24509449 -0.47474375
0.062102202 -0.24322073 -0.48849371
0.15398526 -0.24942887 -0.47585994
0.24381818 -0.25143355 -0.43151256
-0.33860767 -0.15102015 -0.42967719
-0.25225517 -0.15030167 -0.47182101
-0.16283092 -0.14130987 -0.48642054
-0.047742821 -0.14722779 -0.47335231
0.065333918 -0.13917282 -0.48718664
0.15496111 -0.14984597 -0.47508979
0.2432307 -0.15206791 -0.43192422
-0.33824494 -0.051813412 -0.43033588
-0.25220537 -0.050573267 -0.47188762
-0.16405439 -0.04223758 -0.48273972
-0.04932598 -0.046394147 -0.47319731
0.064069971 -0.043695368 -0.48418635
0.15407003 -0.050476108 -0.47435454
0.24413435 -0.051118221 -0.43214783
-0.40148741 0.041439772 -0.40089709
-0.33876145 0.050945081 -0.42984334
-0.25244892 0.049988657 -0.47011477
-0.16001272 0.049718656 -0.48186073
-0.04981086 0.048068646 -0.47294739
0.060502198 0.046696384 -0.48180977
0.15465185 0.05050512 -0.47335702
0.24344657 0.050781455 -0.43200222
-0.3388716 0.15206422 -0.42934719
-0.25308055 0.15082455 -0.46743584
-0.16144584 0.14785378 -0.48099008
-0.048133928 0.15042223 -0.47323242
0.060136598 0.14567694 -0.48014602
0.1536219 0.15112843 -0.47162127
0.24379854 0.15054059 -0.43130729
-0.33886576 0.25116915 -0.42853197
-0.25290972 0.25097036 -0.46614838
-0.16156785 0.24989082 -0.47895142
-0.052393701 0.25090316 -0.47392383
0.058630712 0.24736033 -0.47938961
0.15378822 0.25126407 -0.46947482
0.24362864 0.25011045 -0.43091279
-0.33811808 0.34999254 -0.42819521
-0.25259048 0.35027277 -0.4648127
-0.1603383 0.35205033 -0.47674617
-0.048943538 0.35072938 -0.47319847
0.060222745 0.352907 -0.47703552
0.15325961 0.35043719 -0.46877798
0.24368995 0.34930035 -0.43040961
-0.33835816 0.44978392 -0.4286826
-0.25238848 0.45067033 -0.46307421
-0.15917706 0.45499668 -0.47481257
-0.050496724 0.45150769 -0.47256583
0.058390811 0.4552969 -0.47508287
0.15373529 0.45110166 -0.46627781
0.24382082 0.44929123 -0.4301739
-0.40004057 0.58044487 -0.40387678
-0.33919334 0.55156946 -0.42832547
-0.25184092 0.5508281 -0.46153969
-0.15761726 0.55099154 -0.47231206
-0.049651623 0.55147129 -0.47302881
0.057330828 0.55085105 -0.47207093
0.1533846 0.55055553 -0.4647713
0.24313945 0.55153543 -0.43082041
0.30457044 0.58900362 -0.40263844
-0.40050936 0.61859179 -0.40160835
-0.33910599 0.65285385 -0.42786804
-0.25217989 0.65732002 -0.45877084
-0.15555435 0.66454512 -0.47182125
-0.050217342 0.66308969 -0.47741038
0.053622339 0.66457683 -0.47191399
0.15304916 0.65763026 -0.46180698
0.24300823 0.65449792 -0.43044829
0.30383518 0.64246047 -0.40213436
-0.42900053 -0.63536167 -0.33286917
-0.35288632 -0.67048746 -0.35369667
-0.25028276 -0.69128442 -0.35026112
-0.14983276 -0.69379961 -0.34997451
-0.04891536 -0.69264948 -0.35033312
0.050439686 -0.6934076 -0.34998459
0.14986986 -0.69234622 -0.34991804
0.25367075 -0.67441481 -0.35342756
0.33344522 -0.63745826 -0.33634767
-0.43681407 -0.54970843 -0.34303543
-0.38018391 -0.54809082 -0.38482246
-0.28670382 -0.56044102 -0.39437678
0.19555452 -0.53341669 -0.39215532
0.28105804 -0.54934818 -0.38573483
0.34413347 -0.54925931 -0.34552044
-0.43584311 -0.44916663 -0.34207237
-0.37824535 -0.45025265 -0.38347217
-0.29726291 -0.47200179 -0.38897383
0.19361734 -0.47403583 -0.39813051
0.28208524 -0.4511694 -0.38286805
0.3428365 -0.44994354 -0.34500977
-0.43618989 -0.35076079 -0.34130087
-0.37896106 -0.34789467 -0.38259384
-0.28350726 -0.34435222 -0.39584941
0.28031042 -0.34879139 -0.38307112
0.34296733 -0.35095012 -0.34432113
0.40075415 -0.33472583 -0.30062395
-0.43686208 -0.25237399 -0.34162632
-0.37786779 -0.24824485 -0.38338083
-0.28911892 -0.24083865 -0.39295942
0.19306472 -0.27012944 -0.39486483
0.27990562 -0.25060695 -0.38141993
0.34368667 -0.25134408 -0.3451964
-0.43676722 -0.15161467 -0.34171435
-0.37748727 -0.14952263 -0.38251835
-0.29107735 -0.14811774 -0.39356309
0.27945277 -0.14764503 -0.38209137
0.34326407 -0.15105015 -0.3452825
-0.43745705 -0.050892681 -0.34170932
-0.37713444 -0.049651906 -0.38179848
-0.28962436 -0.037876468 -0.39406046
0.1950839 -0.063565969 -0.3944883
0.28082624 -0.049678426 -0.37893876
0.34441769 -0.051201314 -0.34443793
0.40031326 -0.076064207 -0.30045354
-0.43661767 0.050716959 -0.34222186
-0.37378776 0.050263777 -0.37942734
-0.29366314 0.042446841 -0.39134493
0.19765212 0.025349617 -0.398891
0.2756612 0.049208269 -0.37852231
0.34353712 0.049891975 -0.3453123
-0.43667057 0.15199721 -0.34070295
-0.37236387 0.1492788 -0.37778369
-0.29024127 0.15294771 -0.39313763
0.19408163 0.15204677 -0.39617351
0.27365619 0.1504304 -0.37735569
0.34282148 0.15190649 -0.3443785
-0.43572244 0.25100219 -0.34110868
-0.3710331 0.24954139 -0.37503174
-0.29073867 0.24653755 -0.39488697
0.1911985 0.24918082 -0.3978973
0.27152148 0.24922775 -0.37543535
0.34218609 0.25120601 -0.34333682
-0.43449798 0.34977829 -0.34098846
-0.36826441 0.35042089 -0.37403888
-0.28853294 0.35377118 -0.39597028
0.19539021 0.37774926 -0.39733961
0.27007535 0.34974998 -0.37523332
0.3416431 0.35057986 -0.34285146
-0.43505248 0.4490304 -0.34059605
-0.36749691 0.4524855 -0.37245697
-0.29358512 0.45053276 -0.39274195
0.19645885 0.4590432 -0.39635861
0.26758397 0.45283425 -0.37286082
0.34147844 0.45010442 -0.34219369
-0.4350037 0.55021614 -0.34142423
-0.36555058 0.54996789 -0.36881366
-0.29010221 0.55316931 -0.39479834
0.19416207 0.56147206 -0.39662039
0.26589787 0.54958576 -0.36994383
0.34172615 0.55103368 -0.34318691
-0.43430302 0.65440667 -0.34009811
-0.36426118 0.66058683 -0.3672691
-0.29172593 0.65185946 -0.3939901
0.19737689 0.67003244 -0.39730301
0.2643674 0.66087973 -0.36961377
0.33973861 0.65481126 -0.34280345
-0.51126444 -0.62432909 -0.22207732
-0.45395687 -0.66280073 -0.251243
-0.35079241 -0.69243371 -0.24989136
-0.24940528 -0.68992388 -0.24905971
-0.1500631 -0.67557067 -0.2496483
-0.049510725 -0.66756278 -0.25110427
0.050746359 -0.67404813 -0.2500017
0.15072346 -0.68921298 -0.24978147
0.2504175 -0.69273287 -0.24872319
0.35450867 -0.66768628 -0.25277427
0.41610363 -0.62748915 -0.2289993
-0.51605254 -0.55110842 -0.22946167
-0.48168537 -0.54908717 -0.27259722
0.3856256 -0.549272 -0.27647439
0.42056081 -0.55042487 -0.23894522
-0.51631325 -0.44860035 -0.22734483
-0.48049405 -0.45022613 -0.27263758
0.38603607 -0.45130983 -0.27636403
0.42029244 -0.44940588 -0.237923
-0.51649183 -0.35079792 -0.22691272
-0.47961885 -0.34992504 -0.27059492
0.38392669 -0.35019222 -0.27363074
0.42033327 -0.35102311 -0.23818249
-0.51668435 -0.25317985 -0.22779977
-0.4793821 -0.24889202 -0.27088371
0.38455009 -0.24857496 -0.27401626
0.42072394 -0.25150701 -0.23836096
-0.51733708 -0.15371522 -0.22678602
-0.47942829 -0.14969604 -0.27103704
-0.39691293 -0.16044788 -0.29773355
0.38170522 -0.14847481 -0.27407628
0.42045087 -0.15240529 -0.23917493
-0.51673996 -0.052903116 -0.22813922
-0.47708699 -0.048837326 -0.27007341
0.37981665 -0.047884043 -0.26957726
0.41994274 -0.052360788 -0.24169286
-0.51774633 0.05141658 -0.22694844
-0.47623101 0.050082762 -0.26936865
-0.39817554 0.059325397 -0.29720247
0.37851286 0.051073089 -0.2731449
0.42038187 0.050227113 -0.23963442
-0.51739699 0.1529869 -0.22693376
-0.47531572 0.14950448 -0.26724294
0.37741837 0.14919284 -0.26907858
0.4211787 0.1523845 -0.23871242
-0.5164243 0.25131863 -0.22776505
-0.47299105 0.2502113 -0.26734498
-0.3982583 0.25088102 -0.29899454
0.37593013 0.25030413 -0.26910064
0.42037863 0.25242469 -0.23918565
-0.51630944 0.34697518 -0.22676709
-0.47144604 0.35117683 -0.26617905
-0.3982406 0.34438485 -0.29844755
0.37465045 0.35199502 -0.26564756
0.4203836 0.34993127 -0.23855925
-0.51610941 0.44743872 -0.22796524
-0.46968207 0.45159668 -0.26412857
-0.396424 0.46177793 -0.29977211
0.37232846 0.45305574 -0.26449025
0.42043158 0.44963115 -0.23842098
-0.51654297 0.55136323 -0.22868054
-0.46625233 0.55013317 -0.26466775
0.36997598 0.55013204 -0.26267904
0.42108318 0.55088514 -0.23839383
-0.51593965 0.65097535 -0.2300791
-0.46544936 0.66002458 -0.26183808
-0.39863038 0.63796759 -0.29739642
0.36879885 0.66073227 -0.26158977
0.42078835 0.65149772 -0.23876274
-0.52865362 -0.64127111 -0.14600585
-0.45070022 -0.68672097 -0.15063865
-0.35013261 -0.69233018 -0.1490124
-0.25074342 -0.66770357 -0.15032198
-0.15051831 -0.6478942 -0.15113319
-0.049736533 -0.64446086 -0.15112016
0.050970469 -0.64798617 -0.1524495
0.15108992 -0.66453689 -0.15050848
0.25040275 -0.69133478 -0.15010464
0.35130489 -0.68878114 -0.14990172
0.43530086 -0.64423889 -0.14640832
-0.54333752 -0.54968429 -0.15067925
-0.48496667 -0.5491249 -0.16156988
-0.2059553 -0.59909594 -0.11609384
-0.13883488 -0.59562469 -0.13655554
-0.048969876 -0.59313935 -0.14505686
0.043607149 -0.59477144 -0.1346354
0.11310957 -0.59835517 -0.12206139
0.38813859 -0.55840981 -0.18202141
0.45402053 -0.55034959 -0.14969543
-0.5421145 -0.44907865 -0.1496035
-0.48415864 -0.45105708 -0.16063102
0.39397612 -0.45283747 -0.17874183
0.45591307 -0.45164198 -0.15218976
0.54587305 -0.42609578 -0.12776658
0.60107929 -0.40219057 -0.11771937
-0.54178399 -0.34896788 -0.15001523
-0.48480338 -0.3509587 -0.1620454
0.38997573 -0.34803104 -0.18018605
0.4552063 -0.3521578 -0.15302004
0.56418681 -0.35995153 -0.14021583
0.62249535 -0.33861482 -0.12795933
-0.54278672 -0.2492383 -0.14859933
-0.48692429 -0.25095856 -0.1634475
0.39306867 -0.24873886 -0.17686485
0.45348811 -0.25037071 -0.15142649
0.58411723 -0.268177 -0.13002351
0.65098083 -0.2469967 -0.13778438
0.70313025 -0.20277412 -0.11158594
-0.54291081 -0.14959855 -0.14851591
-0.48624387 -0.14727612 -0.16247937
0.38899305 -0.15389332 -0.17359462
0.45330933 -0.15011694 -0.15117861
0.5951671 -0.16340941 -0.10937095
0.66494775 -0.15410118 -0.14526698
0.70933259 -0.1349812 -0.12391023
-0.54295903 -0.049871273 -0.14755648
-0.48739144 -0.045516625 -0.16397336
0.39101723 -0.045433138 -0.17883885
0.45352522 -0.050657369 -0.15016893
0.67146075 -0.055254776 -0.14509398
0.73390853 -0.043144941 -0.13767742
-0.54310638 0.050603159 -0.14731267
-0.48794079 0.052216861 -0.1626296
0.39116049 0.049859848 -0.18055624
0.45164356 0.049284548 -0.14981571
0.68695283 0.02465616 -0.12497286
0.7583676 0.046123765 -0.14937517
0.8147862 0.073261149 -0.13006589
-0.54222494 0.15135087 -0.14847124
-0.48670295 0.14991751 -0.16255116
0.39202747 0.14754224 -0.17659555
0.45076117 0.15113719 -0.14952353
0.77232987 0.14448704 -0.14973144
0.83302289 0.15254943 -0.14262548
-0.54111308 0.25041944 -0.1481988
-0.4875201 0.25183684 -0.16162182
0.39042932 0.25838229 -0.17704418
0.44856656 0.2512213 -0.15043081
0.77186573 0.25454998 -0.14966311
0.83216017 0.24841543 -0.14290732
-0.53894031 0.35042128 -0.14843392
-0.4864167 0.35125738 -0.16260295
0.39047772 0.35677981 -0.17938325
0.45173374 0.35086012 -0.14986116
0.54619908 0.37577531 -0.1283658
0.65623456 0.3738696 -0.13773215
0.75567681 0.35326669 -0.14851348
0.81430739 0.32410589 -0.12954189
-0.53939682 0.44963744 -0.14790307
-0.48709494 0.45362994 -0.16342156
0.39149958 0.45104173 -0.17931435
0.44840699 0.45035383 -0.14767262
0.55699039 0.43582386 -0.13458233
0.65002394 0.43648916 -0.13714144
0.72575498 0.41659629 -0.12867109
-0.53980708 0.55107141 -0.14731805
-0.48705867 0.55214 -0.16416498
0.39100802 0.55319285 -0.17645635
0.44613639 0.551045 -0.14759612
-0.53758848 0.65740603 -0.14743103
-0.4879581 0.65607613 -0.16532984
0.39189616 0.65205073 -0.17703816
0.44348139 0.65746498 -0.14651193
-0.54019463 -0.64905494 -0.048377097
-0.45083395 -0.69056356 -0.049300894
-0.34947896 -0.68645924 -0.048730668
-0.25207344 -0.65312338 -0.049757753
-0.15029527 -0.64109999 -0.049015794
-0.04931093 -0.63804787 -0.049507078
0.050690617 -0.64047879 -0.04967656
0.15175423 -0.65138221 -0.049305055
0.24997541 -0.68365824 -0.048926964
0.35116056 -0.69141793 -0.04934641
0.4462505 -0.65248019 -0.048315194
-0.56189132 -0.55051786 -0.04967054
-0.49692234 -0.52932811 -0.086718343
-0.22177143 -0.59687525 -0.035626899
-0.15045436 -0.59064794 -0.046697732
-0.04869426 -0.58742291 -0.046374459
0.050315786 -0.58946145 -0.045784082
0.12429263 -0.5960083 -0.045355186
0.47265851 -0.55113232 -0.050053749
-0.56028551 -0.45018762 -0.049529642
0.47210637 -0.47024605 -0.051099319
0.556292 -0.43648538 -0.049634196
0.60354322 -0.40595236 -0.039341636
-0.55954146 -0.34932482 -0.049773946
-0.49859315 -0.34513223 -0.082080215
0.47029939 -0.34149039 -0.053241391
0.5413475 -0.35077879 -0.050981142
0.63074148 -0.34889746 -0.049168993
-0.56019956 -0.25100693 -0.048828937
0.46935865 -0.24713957 -0.04827885
0.57330954 -0.25552994 -0.048553254
0.67519355 -0.25194249 -0.049783517
0.7029348 -0.21110669 -0.036202583
-0.56058347 -0.15137427 -0.05012437
-0.4966169 -0.17412353 -0.094390646
0.46953803 -0.1486837 -0.050471473
0.59387881 -0.18236279 -0.059546456
0.64786184 -0.15600005 -0.05454725
0.71358746 -0.1457094 -0.047702249
-0.55989867 -0.051154375 -0.050288513
-0.49729255 -0.034388334 -0.094185442
0.46795198 -0.049682911 -0.049160033
0.65014315 -0.046515107 -0.050690625
0.74984586 -0.048577126 -0.049474146
-0.55822593 0.050597746 -0.049116936
-0.49818733 0.085312814 -0.092110172
0.46720585 0.051140342 -0.049286757
0.68221843 0.027399076 -0.051672276
0.76277727 0.037133448 -0.051233988
0.81963813 0.065177388 -0.047307439
-0.55676556 0.15088747 -0.049723182
-0.49859327 0.14888364 -0.092146456
0.46472585 0.14975676 -0.049302656
0.75369871 0.14761245 -0.04789944
0.84972817 0.14912039 -0.049024507
-0.5550012 0.2501519 -0.049691115
-0.49910331 0.26198819 -0.092072487
0.46268249 0.24885163 -0.050459959
0.75284588 0.25176862 -0.048281778
0.84867138 0.25131956 -0.049700171
-0.55372363 0.35065931 -0.049288888
-0.49908456 0.38011849 -0.094960034
0.456918 0.3369962 -0.050429165
0.54800916 0.3610138 -0.049031939
0.65003848 0.35936114 -0.049953192
0.76683587 0.36601743 -0.050355628
0.81879288 0.33105981 -0.047852162
-0.5519672 0.44964191 -0.048608407
-0.49906555 0.45805404 -0.094403274
0.45548198 0.4570893 -0.050803181
0.55478382 0.45878801 -0.049449176
0.65202701 0.45511842 -0.049341332
0.73177934 0.42151949 -0.048667844
-0.55143625 0.5498237 -0.0497909
-0.49927244 0.55548555 -0.095417164
0.46012452 0.55133897 -0.049419116
-0.54904181 0.65634 -0.049698547
-0.49913272 0.668854 -0.097295649
0.45934835 0.65811783 -0.049351569
-0.54099488 -0.6490556 0.049962852
-0.45137152 -0.69098502 0.050983436
-0.34895706 -0.68648511 0.050587937
-0.25195259 -0.65315688 0.050970398
-0.15077958 -0.64093697 0.05062218
-0.049413815 -0.63795406 0.051564928
0.050660182 -0.64028108 0.051823724
0.15141813 -0.65118653 0.052054454
0.24956235 -0.68373466 0.050890252
0.35069662 -0.69196868 0.051367108
0.44699419 -0.65197641 0.050056946
-0.56298172 -0.5504213 0.051146656
-0.49883485 -0.5321098 0.082862444
-0.22098918 -0.5967375 0.045072649
-0.15113647 -0.59050816 0.053301699
-0.049877178 -0.58733875 0.051963352
0.050273094 -0.58929771 0.051133849
0.12556747 -0.59625989 0.050834697
0.47293371 -0.55045944 0.051719412
-0.56155026 -0.44991848 0.051294997
0.47171399 -0.4567678 0.061426137
0.54997045 -0.43137264 0.042541519
0.60601634 -0.4043946 0.023652837
-0.56143957 -0.34941122 0.050589755
0.46910575 -0.35115552 0.062707424
0.55732197 -0.35821286 0.058208875
0.62834179 -0.34450126 0.036768381
-0.56129283 -0.2507892 0.050366767
0.46675518 -0.24895376 0.057834204
0.5804413 -0.26493201 0.040442497
0.65594012 -0.249515 0.044730317
0.70372063 -0.21224518 0.020866597
-0.5616287 -0.15061371 0.050275393
-0.4972066 -0.18848127 0.0991285
0.46589541 -0.14997809 0.05691497
0.59908044 -0.18727024 0.014298594
0.65869677 -0.15318735 0.05118122
0.71419638 -0.14471796 0.026805496
-0.56007552 -0.050436031 0.049641181
-0.49879727 -0.055036306 0.094706513
0.4656404 -0.050339717 0.055086482
0.6694653 -0.054344565 0.045135867
0.73863208 -0.045097664 0.036379743
-0.55978221 0.05084379 0.049890611
-0.49869931 0.0026151538 0.09526521
0.46461871 0.049991198 0.055249974
0.68785155 0.021245059 0.027661739
0.75703615 0.045785125 0.042057157
0.81758946 0.068383619 0.024634138
-0.55746382 0.15090874 0.050513797
0.46345603 0.15071297 0.054681297
0.77135521 0.1437957 0.035906736
0.83586788 0.15242404 0.032806732
-0.55650109 0.25028321 0.050714761
-0.49981654 0.28726095 0.094943404
0.46204481 0.25030026 0.054757748
0.77191943 0.25479007 0.03616643
0.83534992 0.24846902 0.032358415
-0.55500984 0.35084021 0.051672351
-0.4997651 0.39803886 0.09964022
0.46207428 0.34651542 0.061232071
0.54439938 0.37038571 0.044915829
0.65543246 0.37322232 0.040612109
0.75442439 0.35384172 0.041859165
0.81676614 0.32782197 0.024053706
-0.55277508 0.45018056 0.050557725
-0.49938926 0.41967624 0.099133849
0.45875412 0.45171845 0.056251422
0.55400592 0.43878543 0.049912952
0.64880133 0.43878379 0.042546686
0.72835505 0.41906846 0.028010784
-0.55217803 0.55037159 0.050174613
-0.49952349 0.56965202 0.095851719
0.46086276 0.55095679 0.052538604
-0.5497824 0.65707713 0.050847996
0.46013409 0.65762395 0.050952446
-0.52939934 -0.64178509 0.14690746
-0.45105785 -0.6873706 0.15005727
-0.35006246 -0.69201887 0.14875586
-0.2507301 -0.66612852 0.15020177
-0.15106961 -0.64730668 0.15093569
-0.049486797 -0.64383072 0.15077123
0.051524781 -0.64733869 0.15243009
0.15071739 -0.66316074 0.15107943
0.2503632 -0.69083565 0.14997472
0.35097688 -0.68926871 0.1496051
0.4360607 -0.64551741 0.14722258
-0.54531598 -0.54963511 0.15004544
-0.48709518 -0.55073434 0.16809505
-0.22447743 -0.59972811 0.11048486
-0.14044632 -0.5952009 0.13987301
-0.04840989 -0.59284115 0.14715004
0.045608506 -0.59455645 0.13837673
0.11672651 -0.5986228 0.11969825
0.39160454 -0.55326611 0.16954973
0.455176 -0.55027437 0.14937556
-0.54390246 -0.44901124 0.15023215
-0.48836848 -0.45220199 0.16749735
0.39171758 -0.44706544 0.17944175
0.45212057 -0.45167771 0.15183945
-0.54361826 -0.34917384 0.14992869
-0.4887192 -0.35097319 0.16550329
0.39140677 -0.35149279 0.17371657
0.45055264 -0.35130709 0.15358022
-0.54456228 -0.24927634 0.14875244
-0.48624247 -0.24745293 0.17170987
0.39132205 -0.25310943 0.17762305
0.45007926 -0.25073776 0.15349309
-0.54462832 -0.15042877 0.15029787
-0.48837817 -0.14859259 0.1591263
0.39077625 -0.14998589 0.17754097
0.45035353 -0.15091965 0.15358843
-0.54433817 -0.050805271 0.15001526
-0.48766378 -0.051021207 0.16623436
0.39131546 -0.043961465 0.1830834
0.44965684 -0.051081244 0.15306172
-0.54431868 0.050721992 0.14863282
-0.48775259 0.053189125 0.16552301
0.39119011 0.055402875 0.18211672
0.44903088 0.049258832 0.1527594
-0.54393697 0.15157248 0.14852005
-0.48869368 0.14914855 0.16515791
0.39200193 0.15307146 0.17955624
0.44795537 0.15032291 0.15235935
-0.54216695 0.25070602 0.1491974
-0.48788714 0.25062755 0.16736075
0.39270833 0.25356263 0.17838819
0.44585758 0.25135154 0.15283418
-0.54081923 0.3499555 0.14938781
-0.48864895 0.35035804 0.16389389
0.39013973 0.35507548 0.17984425
0.44488442 0.35115865 0.15073004
-0.54078895 0.44977838 0.14767273
-0.48943812 0.45221001 0.16374506
0.3922129 0.45099801 0.17667067
0.44501212 0.45124951 0.14947835
-0.54112101 0.55009621 0.14735506
-0.48844656 0.5531981 0.1650811
0.39280716 0.55468136 0.17687273
0.44522765 0.55129087 0.14908606
-0.53841263 0.65711236 0.14750074
-0.4887338 0.65464014 0.16693784
0.39198166 0.65024686 0.17942187
0.44468731 0.65738475 0.1479433
-0.512389 -0.62459058 0.2266662
-0.45382601 -0.66488051 0.25238401
-0.35116318 -0.69251972 0.25000572
-0.24947013 -0.68893683 0.24902271
-0.14959729 -0.67323971 0.24981794
-0.049642596 -0.66507965 0.25123155
0.050341778 -0.67190564 0.25081459
0.15090607 -0.68799585 0.24947329
0.25019553 -0.69293427 0.2489337
0.35401756 -0.66996485 0.25267878
0.41661471 -0.62886262 0.23215678
-0.51763582 -0.55215067 0.23117584
-0.48353192 -0.54840851 0.27476186
-0.063664891 -0.59959507 0.20684119
0.38734788 -0.5470804 0.27870545
0.42332107 -0.55073577 0.23943436
-0.51807594 -0.44851741 0.22847833
-0.48380667 -0.45073777 0.27293873
0.38635808 -0.45013106 0.27573439
0.42318413 -0.44848049 0.23784102
-0.51853287 -0.35013464 0.22738884
-0.48252642 -0.34955159 0.27080163
0.38558406 -0.35083279 0.27531356
0.42228273 -0.35079947 0.23878558
-0.51899785 -0.25216648 0.22843572
-0.4826737 -0.24809159 0.27105245
0.38541389 -0.24836385 0.27334097
0.42231598 -0.25230545 0.2390085
-0.51863182 -0.15221091 0.23000383
-0.48147994 -0.14888088 0.2708756
0.3855615 -0.14931676 0.27310503
0.42326695 -0.15192068 0.23807062
-0.51870883 -0.051858999 0.23016109
-0.48132303 -0.049739648 0.27046609
0.3824527 -0.048405051 0.27160081
0.42323506 -0.052959129 0.23946577
-0.51937985 0.050778877 0.22954303
-0.47941959 0.049923733 0.2689057
0.38246641 0.051692422 0.27004287
0.42315024 0.048682149 0.23882991
-0.51938194 0.15268345 0.22862856
-0.47871214 0.15048617 0.26784819
0.3794995 0.14903483 0.26993516
0.42244413 0.1522461 0.2388884
-0.51905012 0.25303733 0.22787815
-0.47696951 0.24991101 0.26686209
0.37894073 0.2504541 0.26838234
0.42269495 0.25230518 0.23767586
-0.51789689 0.3490963 0.22860284
-0.47472265 0.35096687 0.2660847
0.37799054 0.35176146 0.26659161
0.4222922 0.35059327 0.23717509
-0.51822066 0.44913515 0.22889026
-0.47224951 0.45139825 0.26437694
0.3751246 0.45232823 0.26500091
0.423026 0.44958094 0.23752823
-0.51839244 0.55256218 0.23100489
-0.46951962 0.55048794 0.26445344
0.37297684 0.55025935 0.26241991
0.42276081 0.55201012 0.23950964
-0.5172382 0.65146488 0.23323782
-0.46693361 0.66070962 0.26216742
0.37127045 0.66076589 0.2611323
0.4218218 0.65267313 0.24088764
-0.43059242 -0.63675946 0.33577946
-0.35314086 -0.67321151 0.35394779
-0.25069317 -0.69197637 0.35038906
-0.15018189 -0.69372112 0.35030624
-0.04916209 -0.69247085 0.35044414
0.050497461 -0.69316947 0.35024366
0.15030873 -0.69276994 0.35028115
0.25370136 -0.67716414 0.353131
0.33549044 -0.63974607 0.33790556
-0.44022954 -0.54967362 0.34524962
-0.38263905 -0.54788566 0.38575554
-0.29135931 -0.53498191 0.39471161
0.19274828 -0.59528041 0.39822575
0.28128228 -0.54503167 0.38554722
0.34635055 -0.55009955 0.34877568
0.4020575 -0.50437188 0.30158332
-0.43902814 -0.44827196 0.3444334
-0.3805984 -0.45129171 0.38354924
0.28034356 -0.45156839 0.38713086
0.34537572 -0.45055649 0.34810492
0.40053815 -0.42465249 0.30374455
-0.43912959 -0.35023057 0.34381768
-0.37863812 -0.34991595 0.38362753
-0.29168537 -0.33050942 0.39540392
0.19937791 -0.34213963 0.39794511
0.27889872 -0.35073298 0.38648993
0.3452898 -0.35079092 0.34769458
0.40244868 -0.37587196 0.30077735
-0.43924105 -0.25183168 0.34504864
-0.37786984 -0.24624154 0.38201454
-0.29774866 -0.2750628 0.39797512
0.27726719 -0.24904492 0.38713166
0.34527189 -0.25179103 0.34820536
0.40145981 -0.24862899 0.30140918
-0.43956524 -0.15152982 0.34463537
-0.377904 -0.14817831 0.38220227
-0.29452029 -0.16425647 0.3965669
0.27791089 -0.14629781 0.38561392
0.3460936 -0.1521024 0.3482115
0.40117264 -0.17052716 0.30066696
-0.43927783 -0.051364098 0.34493569
-0.37592408 -0.047276519 0.38177887
0.27916831 -0.045474276 0.38467574
0.34631819 -0.052285779 0.3483049
-0.440319 0.050006628 0.34373513
-0.37664619 0.051339462 0.37947199
-0.29361978 0.032559365 0.39679128
0.2742978 0.048250854 0.38067958
0.34546885 0.050379846 0.34786895
0.40039459 0.067643493 0.30136296
-0.43894559 0.15155827 0.3444688
-0.37296957 0.14835651 0.37632945
-0.29362988 0.16567296 0.39699143
0.27088547 0.14927281 0.38048318
0.34519947 0.15186019 0.34748903
-0.43856367 0.25116602 0.34307131
-0.36997721 0.24997962 0.37580454
-0.29367587 0.27345374 0.3981514
0.27215052 0.24962698 0.377029
0.34448859 0.25183743 0.34629938
0.40363988 0.25166351 0.30289364
-0.43779695 0.34935284 0.34240222
-0.37094072 0.35173273 0.3749314
-0.29528424 0.37936738 0.39671513
0.26912948 0.35173118 0.3774201
0.34355897 0.35012591 0.34611133
0.40182945 0.35136288 0.30047989
-0.43760893 0.44905755 0.3428112
-0.3692711 0.45353034 0.37307635
-0.2961444 0.43200278 0.39664495
0.19758868 0.41397145 0.39965451
0.26758862 0.4519088 0.37504813
0.3427377 0.45019588 0.34597605
0.40103251 0.41907865 0.30486432
-0.43814322 0.55020541 0.34322789
-0.36643612 0.55012095 0.36993966
-0.29430908 0.53441656 0.39642897
0.26617566 0.54832608 0.37245664
0.34298277 0.55035424 0.3452189
-0.43720153 0.65442622 0.34147117
-0.36510044 0.66029555 0.36922315
-0.29495499 0.65141958 0.39655975
0.19910154 0.6360901 0.399205
0.26582602 0.66118687 0.37130508
0.34183246 0.65562743 0.34473822
0.40128422 0.63889962 0.30207419
-0.33481434 -0.63357043 0.4248527
-0.24815957 -0.65468007 0.45054805
-0.15230958 -0.67497593 0.45444223
-0.049899522 -0.68234664 0.45289627
0.052213479 -0.67704391 0.45454505
0.14868051 -0.65647066 0.45227277
0.23866872 -0.63525593 0.42734179
0.30464587 -0.60653663 0.40393814
-0.40353513 -0.56687587 0.40296352
-0.34298199 -0.5505802 0.43277055
-0.25648701 -0.54932827 0.47780848
-0.17145514 -0.55235833 0.48688778
-0.04854187 -0.54282802 0.4784348
0.067976907 -0.55150449 0.47920087
0.1581244 -0.54913223 0.48123658
0.24677639 -0.55033654 0.43616289
0.30593991 -0.55947161 0.40424281
-0.34133902 -0.44930917 0.43248662
-0.25521326 -0.44886139 0.47638342
-0.16865459 -0.45440596 0.48586115
-0.042365108 -0.4362005 0.4782337
0.065665916 -0.45428434 0.47999862
0.15721059 -0.44983023 0.47962016
0.24517967 -0.44990423 0.43576288
0.30660135 -0.44363588 0.40308222
-0.40400007 -0.34468922 0.40174833
-0.34076253 -0.35021043 0.43250266
-0.25509256 -0.34904063 0.47633839
-0.16496231 -0.34787753 0.48654133
-0.046143357 -0.34237242 0.47853702
0.067024618 -0.34773219 0.48065588
0.15704569 -0.34992218 0.47949716
0.2449434 -0.35034856 0.43551314
0.30756655 -0.35266614 0.40302503
-0.40375024 -0.25758794 0.40326181
-0.34200835 -0.25207353 0.43198997
-0.25640479 -0.25043103 0.47637278
-0.16271427 -0.23914877 0.48376128
-0.048955992 -0.24861701 0.47983527
0.060578831 -0.23827861 0.47834271
0.1571219 -0.24904974 0.48007059
0.24572514 -0.251129 0.43601918
0.30934983 -0.25284946 0.40167573
-0.40360075 -0.14996985 0.40193877
-0.34218594 -0.15118979 0.43244243
-0.25590628 -0.15045223 0.4761028
-0.16243914 -0.1390228 0.48175979
-0.0503782 -0.15272312 0.47887549
0.060680754 -0.13672285 0.47935304
0.15801708 -0.14999795 0.4787018
0.24496694 -0.15123695 0.43661922
0.30730507 -0.1604096 0.40309849
-0.40223628 -0.06243797 0.40024489
-0.34219363 -0.051168941 0.43287092
-0.25591657 -0.049987067 0.4758178
-0.15559931 -0.040243234 0.47721773
-0.043979429 -0.046864361 0.47897252
0.060905766 -0.037903223 0.47658473
0.15768002 -0.050337352 0.47928813
0.24446887 -0.051798623 0.43735009
0.3058683 -0.055738352 0.40450591
-0.40381217 0.063398033 0.40078342
-0.34215626 0.050480753 0.43280512
-0.25643507 0.050719015 0.47409809
-0.1577464 0.053344663 0.47453809
-0.049367324 0.049044732 0.47947338
0.056355048 0.049453497 0.47353607
0.15729715 0.049846031 0.47681502
0.24455796 0.049605817 0.43716446
0.30665597 0.05081727 0.40316066
-0.40378428 0.1592252 0.40199986
-0.34169501 0.15285036 0.43229118
-0.25582597 0.1508625 0.4720816
-0.15788135 0.14772604 0.47600716
-0.048548806 0.14737512 0.47903869
0.055922057 0.14712535 0.47330514
0.15720482 0.14976804 0.47546101
0.2453167 0.15047033 0.43542755
0.3082706 0.14864743 0.40263474
-0.40422058 0.25449741 0.40108931
-0.34011653 0.25127131 0.43230116
-0.25475124 0.25090823 0.47096869
-0.15716781 0.24792153 0.47597262
-0.05127494 0.25397754 0.47890228
0.056258611 0.24992788 0.4724547
0.15682644 0.25036919 0.47355229
0.2447041 0.25090268 0.43456909
0.30811515 0.25846153 0.40310395
-0.34023941 0.3493419 0.43146783
-0.2541523 0.34986567 0.46900606
-0.15512502 0.35135809 0.47458541
-0.045852136 0.3530784 0.47877553
0.056401592 0.35452148 0.47212228
0.15598722 0.35095581 0.47218108
0.24402139 0.34972236 0.43456388
0.30731678 0.34232643 0.40237087
-0.4034566 0.45647001 0.40200996
-0.34038043 0.44950202 0.43137446
-0.25510496 0.45109874 0.46697685
-0.15591724 0.45386392 0.47190031
-0.049117859 0.45373997 0.47915575
0.055225022 0.45446521 0.47188351
0.15553388 0.45148286 0.47042659
0.24396524 0.44870284 0.43447912
0.30652118 0.44736248 0.40380192
-0.40324256 0.55366892 0.40199274
-0.34085071 0.55147558 0.43155757
-0.25441128 0.55024433 0.46440893
-0.15418921 0.55089915 0.4713335
-0.049222231 0.55337435 0.47860819
0.053414166 0.55254894 0.47066861
0.15617436 0.54930747 0.46751356
0.24381466 0.55133867 0.43459174
0.30635536 0.55055022 0.40355712
-0.40250495 0.65283114 0.40197006
-0.34252968 0.65336001 0.43036309
-0.25539008 0.65816867 0.46199438
-0.15373453 0.66408157 0.47394761
-0.04940312 0.65990353 0.48182276
0.05291025 0.66478097 0.47525948
0.15594342 0.65807104 0.4650178
0.24401443 0.65510309 0.43350497
0.305356 0.64346689 0.40439838
-0.2097487 -0.6109972 0.50403827
-0.14117937 -0.62506992 0.51144195
-0.048344143 -0.63127577 0.51659477
0.044498082 -0.62649697 0.5118953
0.11268295 -0.61414307 0.50509292
-0.21170817 -0.55226952 0.50621575
-0.14730202 -0.54910976 0.51615095
-0.048899986 -0.55003875 0.52556896
0.049117222 -0.54993093 0.51771057
0.1164869 -0.55550957 0.50683683
-0.20980611 -0.44631803 0.50730193
-0.14712541 -0.448645 0.5149672
-0.048886333 -0.44869599 0.52444309
0.049233671 -0.44923377 0.51675558
0.11502936 -0.44639158 0.50707948
-0.21133134 -0.34994489 0.50577998
-0.14731906 -0.35076353 0.51459879
-0.048800938 -0.34978446 0.52407956
0.049289413 -0.34965846 0.51618487
0.11305516 -0.34982139 0.50736749
-0.21176516 -0.25682741 0.50592476
-0.14782733 -0.25241381 0.51528192
-0.049633753 -0.25128311 0.52513021
0.050206292 -0.25141636 0.51676893
0.1157994 -0.2578578 0.50738764
-0.21112633 -0.15751535 0.5065766
-0.14845894 -0.15172367 0.51536822
-0.049562376 -0.15124227 0.52552265
0.048373491 -0.15287808 0.51737148
0.11435142 -0.15562014 0.50794011
-0.21143031 -0.055432882 0.5063284
-0.14819999 -0.050841391 0.51579297
-0.048290513 -0.051179118 0.52567744
0.049156912 -0.052084338 0.51764923
0.11480364 -0.054558761 0.50744683
-0.21109223 0.050865993 0.50641942
-0.14955726 0.050958145 0.5156979
-0.050473157 0.049605019 0.52598548
0.049649991 0.050691325 0.51748675
0.11467372 0.051106185 0.50792861
-0.21181829 0.15643699 0.50576425
-0.14827234 0.15254849 0.51544213
-0.049228009 0.15123478 0.52515638
0.050473806 0.15181738 0.51690549
0.11501389 0.15685263 0.50706357
-0.21030414 0.25421804 0.50579715
-0.14820613 0.25141624 0.51505125
-0.049445078 0.25036481 0.52463824
0.049331855 0.25105855 0.51644993
0.11336955 0.25341013 0.50753945
-0.20944154 0.34946507 0.50663662
-0.14674371 0.34919944 0.51462752
-0.048777729 0.34923688 0.52376115
0.048024099 0.34953758 0.51624751
0.11519752 0.34893575 0.50718033
-0.21123181 0.44473362 0.50571209
-0.14774075 0.44868374 0.51508635
-0.048692416 0.44989768 0.52468425
0.049237262 0.44981021 0.51703078
0.11413391 0.44932774 0.50711381
-0.21357046 0.55475169 0.50549096
-0.14813361 0.550125 0.5158053
-0.049696311 0.55021173 0.52533752
0.049264811 0.55049962 0.51765662
0.11630885 0.55773073 0.50705177
-0.21599664 0.6459083 0.5053584
-0.14851008 0.6512118 0.51729184
-0.048954226 0.65502924 0.52561373
0.049523722 0.6520676 0.51859802
0.11806031 0.64686918 0.50711811
