# .PCD v0.7 - Point Cloud Data file format
VERSION 0.7
FIELDS x y z
SIZE 4 4 4
TYPE F F F
COUNT 1 1 1
WIDTH 338
HEIGHT 1
VIEWPOINT 0 0 0 1 0 0 0
POINTS 338
DATA ascii
-0.20436989 -0.24417804 -0.30290353
-0.14670098 -0.25497255 -0.3251386
-0.049095731 -0.26301062 -0.34468397
0.048534315 -0.26323396 -0.34476674
0.1463259 -0.25494817 -0.32531726
0.20435467 -0.24015458 -0.30208793
-0.20520066 -0.15153685 -0.30331737
-0.15026648 -0.15021759 -0.32724816
-0.050512914 -0.14981438 -0.3537333
0.049386576 -0.14966919 -0.35395721
0.14941518 -0.15045443 -0.32777101
0.20393002 -0.14722513 -0.30257022
-0.20447166 -0.055172395 -0.30328009
-0.15016384 -0.049799718 -0.32737637
-0.050408721 -0.049253244 -0.35263628
0.048749458 -0.050139394 -0.35300642
0.14913452 -0.050040439 -0.32787541
0.20373055 -0.048451319 -0.30265141
-0.20417936 0.052759029 -0.30321518
-0.1506954 0.049796175 -0.32710388
-0.050007608 0.050676085 -0.35101596
0.048431106 0.051210053 -0.35112008
0.14901033 0.049645223 -0.32785052
0.20384866 0.051486243 -0.30239213
-0.20569345 0.15010861 -0.30320415
-0.15029113 0.15017013 -0.32708418
-0.049719613 0.15057443 -0.34881493
0.048582185 0.15028146 -0.34891197
0.14938748 0.1499543 -0.32768947
0.20409511 0.1491213 -0.30246577
-0.20450053 0.24587363 -0.30302528
-0.14982481 0.25005585 -0.32741153
-0.048328049 0.25070661 -0.34644216
0.048214439 0.25047269 -0.34609696
0.1490078 0.25016916 -0.32776642
0.20452251 0.24967505 -0.30211082
-0.20439222 0.33526394 -0.30317423
-0.14561339 0.34517273 -0.32440931
-0.048565589 0.348566 -0.33955538
0.048871778 0.34920743 -0.33938009
0.14529708 0.34518072 -0.32473081
0.20418061 0.33265617 -0.30285206
-0.30269331 -0.24310683 -0.204375
-0.24810465 -0.26028913 -0.24713227
-0.15110129 -0.28823003 -0.25111473
-0.049912542 -0.28909495 -0.25011379
0.049651876 -0.28915858 -0.25026131
0.15079448 -0.28836328 -0.25081173
0.24811995 -0.25987843 -0.24721533
0.30301639 -0.24192835 -0.20435181
-0.30295467 -0.150693 -0.20481716
-0.25328946 -0.14995378 -0.25293684
-0.16153349 -0.14610556 -0.27616346
-0.081095621 -0.1462082 -0.29518312
0.08199282 -0.1489425 -0.29573104
0.16353185 -0.14731286 -0.27650174
0.2534245 -0.14964803 -0.25253621
0.30309379 -0.14720552 -0.20532916
-0.30274177 -0.041487426 -0.20359695
-0.25306377 -0.049736854 -0.25213644
-0.16154478 -0.047221549 -0.27375892
-0.082880691 -0.045972042 -0.29545569
0.081631385 -0.050775558 -0.29589051
0.15867934 -0.048301626 -0.27613547
0.25271755 -0.049504802 -0.25229421
0.30239764 -0.0468021 -0.20457539
-0.3024658 0.042008299 -0.20365882
-0.25210521 0.050537258 -0.25136793
-0.15784685 0.052796513 -0.27323949
-0.081689402 0.050855972 -0.29588285
0.083175063 0.050613966 -0.29561904
0.15817356 0.051225659 -0.27380556
0.25222033 0.050904043 -0.25148839
0.30278939 0.049056742 -0.20526043
-0.30268058 0.14758192 -0.20441815
-0.25143421 0.15030436 -0.25098681
-0.15697238 0.15365958 -0.27212906
-0.082789928 0.15342419 -0.29588717
0.08381369 0.15550469 -0.29500905
0.15597717 0.15430446 -0.27301908
0.25104865 0.15098831 -0.25104946
0.30313629 0.14586559 -0.20517728
-0.30263856 0.24897979 -0.20466994
-0.25021365 0.25018781 -0.24961519
-0.15718322 0.25132349 -0.27231577
-0.083538383 0.25467217 -0.29551259
0.083565608 0.25405967 -0.29566795
0.15688004 0.25183263 -0.27237257
0.25064322 0.25023952 -0.24923442
0.30330187 0.25078332 -0.20428818
-0.30243179 0.33674446 -0.20465122
-0.24579859 0.34727043 -0.24569269
-0.15958562 0.3532365 -0.27584013
-0.082598917 0.33867967 -0.29580727
0.084718853 0.3402428 -0.29567754
0.16025335 0.35337967 -0.27574512
0.24590819 0.34729418 -0.24588399
0.30327764 0.33604413 -0.20344514
-0.32490644 -0.25480357 -0.14723176
-0.25099334 -0.28805795 -0.15037026
-0.15072481 -0.28841513 -0.14951774
-0.050144304 -0.28807837 -0.14939344
0.049478024 -0.28815371 -0.14922708
0.14982533 -0.28845885 -0.14943585
0.24986427 -0.28837657 -0.15011095
0.32486287 -0.25510475 -0.14707822
-0.32747445 -0.15018819 -0.15015163
-0.27522615 -0.14646824 -0.16007996
0.2742565 -0.14706394 -0.15601681
0.32703471 -0.14978339 -0.151199
-0.32737425 -0.050306723 -0.15036891
-0.2716023 -0.04785813 -0.15903924
0.27415377 -0.04509601 -0.16062653
0.32738689 -0.049255889 -0.15088663
-0.32736927 0.050460074 -0.15031962
-0.27301863 0.05254142 -0.1563253
0.27359316 0.051792745 -0.15732287
0.32738087 0.050730798 -0.15071443
-0.32722631 0.14999603 -0.15010804
-0.27158517 0.15416084 -0.15533891
0.27223024 0.15284228 -0.15472734
0.32693225 0.15050021 -0.15193893
-0.3270452 0.25024977 -0.15055923
-0.27139077 0.25266325 -0.15557711
0.27111033 0.25170243 -0.1537924
0.32698736 0.25074232 -0.15104969
-0.32404 0.34547383 -0.14642093
-0.2757248 0.35371086 -0.15972877
0.27541462 0.35312101 -0.15950586
0.32445565 0.34568471 -0.14596225
-0.34502757 -0.26284912 -0.049292456
-0.24994028 -0.28917864 -0.049355593
-0.15042481 -0.28796735 -0.049321454
-0.050688583 -0.28827292 -0.048672702
0.050397296 -0.28819376 -0.048610207
0.14973037 -0.28798646 -0.049217723
0.24984688 -0.28946862 -0.049603447
0.3447375 -0.26338676 -0.048122093
-0.3534753 -0.14966823 -0.049539875
-0.29577315 -0.14417291 -0.080355525
0.29503727 -0.14497593 -0.084729105
0.3560127 -0.14919576 -0.049277931
-0.35263905 -0.04978697 -0.049590014
-0.29614469 -0.0475941 -0.080921374
0.29569098 -0.051790774 -0.08578857
0.36436892 -0.05559618 -0.057630446
0.43399122 -0.028079458 -0.033592507
-0.35117483 0.050807849 -0.049342539
-0.29550782 0.051298592 -0.081314787
0.29570737 0.054220002 -0.083650596
0.34996617 0.049639642 -0.053124718
0.46714908 0.027669866 -0.042311784
0.5236727 0.0587334 -0.036053449
-0.3487874 0.15044984 -0.048884477
-0.29554564 0.15103754 -0.081412069
0.2961767 0.15243645 -0.08134374
0.34913737 0.15335582 -0.051583771
0.46316478 0.17554179 -0.042721972
0.52665192 0.14725137 -0.036925688
-0.34662116 0.25031164 -0.049013294
-0.29606023 0.25066042 -0.081660956
0.2958149 0.2541872 -0.083047748
0.35130256 0.25227758 -0.051096886
0.44779703 0.22076048 -0.034563739
0.5029695 0.20269133 -0.016101288
-0.33969468 0.34875247 -0.048706654
-0.29538375 0.33922604 -0.083857946
0.29581025 0.34015638 -0.082917124
0.33915111 0.34972548 -0.048514668
-0.34511456 -0.26267415 0.049844854
-0.249916 -0.28954363 0.050652225
-0.15038864 -0.28829926 0.050758366
-0.05065906 -0.28850615 0.050101399
0.050374445 -0.28845242 0.049971256
0.14971285 -0.28821734 0.050663006
0.24990232 -0.28955904 0.050960448
0.34453034 -0.26338434 0.049222391
-0.3534258 -0.15000188 0.050742798
-0.29467398 -0.1456228 0.079293542
0.29568401 -0.14287382 0.086231247
0.35611409 -0.14891927 0.049459275
-0.3524369 -0.049339477 0.050091177
-0.29529986 -0.050288338 0.081268862
0.29587126 -0.044451404 0.083456606
0.3652052 -0.05548754 0.059837781
0.43472049 -0.027727257 0.035886921
-0.35125431 0.05017991 0.050090604
-0.29526857 0.051587705 0.08051569
0.29539517 0.049844362 0.082474291
0.34842268 0.047889303 0.051428672
0.46555975 0.03212411 0.048313983
0.52402657 0.058222901 0.037830729
-0.34885246 0.1507083 0.050242357
-0.29555294 0.15301391 0.080724329
0.29539859 0.1532077 0.083666496
0.34783396 0.15434696 0.051836558
0.46374318 0.16918483 0.048062313
0.52668971 0.14754915 0.039403293
-0.34627968 0.25020918 0.049219064
-0.29566768 0.25377029 0.081984214
0.29570344 0.25321904 0.082543783
0.35114741 0.25209668 0.052573744
0.44744137 0.22097217 0.037696764
0.50328994 0.20250823 0.016526727
-0.33966613 0.3488411 0.049258187
-0.29526967 0.33924621 0.084506877
0.29602826 0.33933416 0.083610058
0.33895233 0.34988871 0.049319379
-0.32497108 -0.25493756 0.14659831
-0.25080299 -0.28803411 0.15025078
-0.15070248 -0.28837273 0.14946832
-0.05013093 -0.28811607 0.1493915
0.049457215 -0.28815275 0.14926784
0.14985938 -0.28851721 0.14941891
0.25020853 -0.28812236 0.15035176
0.32519734 -0.25500596 0.14644068
-0.32730791 -0.15013579 0.15038216
-0.27601564 -0.14484237 0.15904613
0.27513385 -0.14582703 0.1590807
0.32744184 -0.14999081 0.14983821
-0.32733881 -0.049815159 0.15011834
-0.27528408 -0.047795948 0.160708
0.27593282 -0.047884624 0.16115168
0.32701388 -0.049759075 0.15026897
-0.32741362 0.050318334 0.14991635
-0.27334541 0.053671494 0.1591104
0.2738927 0.052770507 0.15952075
0.32639569 0.050652932 0.15090698
-0.32714432 0.14997104 0.15026903
-0.27263582 0.1530419 0.1553539
0.27228951 0.15259208 0.15591922
0.32610348 0.15070547 0.15132555
-0.32721847 0.25014982 0.14999445
-0.27173859 0.25299498 0.15492757
0.27177486 0.25171235 0.15426922
0.32661006 0.25079438 0.15036568
-0.32416818 0.34535694 0.14576878
-0.27516374 0.3536776 0.16017614
0.27541423 0.35306504 0.16019385
0.32444873 0.34579644 0.14507759
-0.30291855 -0.24754512 0.20430902
-0.24775183 -0.26014096 0.24727842
-0.15032993 -0.28902784 0.25031656
-0.049976133 -0.28897002 0.25017962
0.049659397 -0.28914565 0.2502524
0.15056838 -0.2886667 0.25038072
0.24801628 -0.25994411 0.24724071
0.30308655 -0.24395445 0.20415713
-0.30275789 -0.14674877 0.20434368
-0.25312307 -0.14972948 0.25286955
-0.16012658 -0.14809333 0.27485463
-0.080727905 -0.14425465 0.29576427
0.081160173 -0.14872558 0.29606023
0.16206041 -0.14734535 0.27486506
0.25321886 -0.14957899 0.25272995
0.30275416 -0.14768727 0.20337752
-0.3030555 -0.05321024 0.2043611
-0.25207233 -0.049678016 0.25302562
-0.1589123 -0.046053849 0.27300036
-0.083952554 -0.048255283 0.29500264
0.083526753 -0.048552196 0.29537588
0.15732224 -0.046872631 0.27345386
0.25184032 -0.049445659 0.25294039
0.30326423 -0.050278217 0.20340002
-0.30307481 0.050066188 0.20457453
-0.25137177 0.050480701 0.25237936
-0.15772682 0.051364157 0.27181947
-0.082564734 0.053685028 0.29584271
0.082412861 0.05031791 0.29560354
0.1559777 0.050879315 0.27209768
0.25093928 0.050998215 0.25257808
0.30289873 0.051114537 0.20354439
-0.30296311 0.1471438 0.20455571
-0.25082448 0.15016533 0.25112197
-0.15571891 0.15419661 0.27158216
-0.084175915 0.1545765 0.29550815
0.083629474 0.15099367 0.29573262
0.15596662 0.15504019 0.27205041
0.25086793 0.15090054 0.251026
0.3028996 0.14844368 0.2037818
-0.30293322 0.25231957 0.20478375
-0.24980901 0.25005755 0.24992135
-0.15394051 0.25167912 0.27193686
-0.082668729 0.25467461 0.29607782
0.082655363 0.25195125 0.29556882
0.15562296 0.2520057 0.27213278
0.25031817 0.25016993 0.24898769
0.30294794 0.25274125 0.20409195
-0.30239961 0.33359516 0.20423517
-0.24599344 0.34737805 0.24586658
-0.15998401 0.35346171 0.27487448
-0.083686642 0.3386507 0.29547292
0.084320441 0.33828172 0.29588786
0.16049075 0.35361856 0.27556905
0.2458545 0.34712556 0.24584186
0.30372882 0.33165586 0.20370583
-0.20425236 -0.24161318 0.30326268
-0.14698373 -0.25474682 0.32500014
-0.049343165 -0.26345178 0.34450272
0.048649922 -0.26275608 0.34494433
0.14682014 -0.2547867 0.32501796
0.2041297 -0.2406956 0.30226213
-0.20468189 -0.15203409 0.30331448
-0.1500923 -0.15039565 0.32737121
-0.050493434 -0.14975779 0.35375634
0.049790334 -0.14967905 0.35381475
0.14969431 -0.15005937 0.32766286
0.20436014 -0.15021476 0.3024421
-0.20366958 -0.04889708 0.30442011
-0.15060884 -0.05022072 0.32709739
-0.050616868 -0.049443044 0.35261679
0.048435826 -0.049934302 0.35287878
0.14972517 -0.049674582 0.32741645
0.20438971 -0.052425776 0.30288899
-0.20398487 0.044438247 0.30387858
-0.15078431 0.049996901 0.32688323
-0.050376646 0.050599728 0.35076305
0.047774766 0.050833721 0.35137609
0.14947398 0.049874831 0.32751703
0.20484355 0.055859838 0.30262786
-0.20432267 0.15249974 0.30352247
-0.15000485 0.14996195 0.32725605
-0.049643848 0.15025026 0.34879074
0.048923593 0.15040202 0.34876907
0.14940646 0.15059966 0.32748035
0.20446061 0.15131527 0.30232465
-0.20452896 0.24536215 0.30325013
-0.14998502 0.24994881 0.32725927
-0.048732918 0.250655 0.34622473
0.048151635 0.25052622 0.34645253
0.14971566 0.25051692 0.32737014
0.20423807 0.24610211 0.30243117
-0.20259327 0.33581451 0.30365238
-0.14573719 0.3453429 0.32441527
-0.049196556 0.34894052 0.33917758
0.048327819 0.34875116 0.33956498
0.14545205 0.34521407 0.32462516
0.20371543 0.33488518 0.30293077
