# .PCD v0.7 - Point Cloud Data file format
VERSION 0.7
FIELDS x y z
SIZE 4 4 4
TYPE F F F
COUNT 1 1 1
WIDTH 262
HEIGHT 1
VIEWPOINT 0 0 0 1 0 0 0
POINTS 262
DATA ascii
-0.037173025 -0.22269443 -0.30253989
0.011385238 -0.22201091 -0.30189788
-0.037496299 -0.14945494 -0.30269855
0.011565883 -0.1535279 -0.30213061
-0.037545305 -0.04993505 -0.30276859
0.012094345 -0.046971444 -0.30181989
-0.037663762 0.050509974 -0.30276072
0.012643451 0.050098397 -0.30169061
-0.037699707 0.14937174 -0.30268651
0.011477924 0.15216841 -0.30207467
-0.037471414 0.2502051 -0.30260584
0.012265027 0.24974744 -0.30193114
-0.036841184 0.32326978 -0.30245602
0.011526262 0.32190409 -0.30192497
-0.22288963 -0.23559619 -0.22072244
-0.14787357 -0.25746703 -0.2485247
-0.050171405 -0.26646918 -0.26042533
0.049909338 -0.26233655 -0.25745803
0.14130805 -0.24651544 -0.23147273
0.20115443 -0.22155575 -0.20156138
-0.22689079 -0.15020733 -0.22343867
-0.15186895 -0.14996824 -0.26869071
-0.055213153 -0.1497526 -0.29224256
0.053990569 -0.14983685 -0.28447899
0.14948396 -0.15010634 -0.23901796
0.20178585 -0.13380422 -0.20206861
-0.22674292 -0.049387783 -0.22353044
-0.15188333 -0.049490061 -0.26729295
-0.055289753 -0.049052097 -0.29056609
0.053851433 -0.049259201 -0.2830475
0.14908095 -0.049515776 -0.23854126
0.20186697 -0.061040953 -0.20136839
-0.22667439 0.050198231 -0.22346787
-0.15156427 0.051249139 -0.26552111
-0.05545133 0.050686408 -0.28907561
0.053617485 0.050889835 -0.28093472
0.14824709 0.050660055 -0.23806266
0.20162863 0.055676091 -0.2012563
-0.22664098 0.14975001 -0.22346655
-0.15153357 0.15065815 -0.26336914
-0.053811532 0.15069956 -0.28608313
0.053455085 0.150709 -0.27898663
0.14768113 0.15075359 -0.2374502
0.20170505 0.13273123 -0.20202191
-0.22659186 0.24975972 -0.22361311
-0.15071961 0.25059938 -0.26035908
-0.053753641 0.25089818 -0.2828359
0.053305157 0.25079101 -0.27564687
0.14684899 0.25072655 -0.23635647
0.20170826 0.25716794 -0.20219278
-0.22374214 0.3316547 -0.22094028
-0.15082124 0.33488196 -0.25441778
-0.052160259 0.33567125 -0.27899516
0.051707841 0.33476916 -0.27102527
0.14277631 0.33365828 -0.23291937
0.20164576 0.32853901 -0.20296867
-0.30613169 -0.22515993 -0.11260111
-0.25267994 -0.26175669 -0.15058976
-0.15063247 -0.2809661 -0.1500985
-0.049693912 -0.27558541 -0.15028881
0.050678946 -0.27766511 -0.1502458
0.15407859 -0.27974486 -0.15307364
0.22464818 -0.24396476 -0.1413493
-0.30613318 -0.14991392 -0.11411497
-0.2745375 -0.14993215 -0.16158757
-0.18970846 -0.14555149 -0.19580771
0.18442258 -0.14830938 -0.17892106
0.23048295 -0.15111586 -0.14951213
-0.30603194 -0.049223386 -0.1137871
-0.27313197 -0.04965407 -0.16093555
-0.1944703 -0.046984401 -0.19456047
0.18158072 -0.046887163 -0.1761495
0.2303813 -0.049509369 -0.14874919
-0.30593184 0.049784344 -0.11394936
-0.27069506 0.051000964 -0.1604594
-0.192856 0.051102456 -0.19564033
0.1793173 0.05220158 -0.17505461
0.23026778 0.050783124 -0.14811377
-0.30616489 0.15063587 -0.11388413
-0.268769 0.15086187 -0.15961379
-0.1934672 0.15241002 -0.19466838
0.17704582 0.15343958 -0.17165998
0.22960834 0.15120561 -0.14782998
-0.30623987 0.2505039 -0.11365763
-0.26512778 0.25104189 -0.15867926
-0.19370586 0.25357473 -0.19459665
0.17540534 0.25207287 -0.1698305
0.22881323 0.2510272 -0.1468263
-0.30571935 0.32526711 -0.11328801
-0.2607305 0.3359282 -0.15570424
-0.19350912 0.33079135 -0.19528769
0.17749155 0.33710119 -0.17240418
0.22557256 0.33360389 -0.14207357
-0.31779033 -0.23519613 -0.048128482
-0.25613064 -0.28223228 -0.050686091
-0.15053159 -0.27300638 -0.050460871
-0.049627416 -0.26781625 -0.051349249
0.050910663 -0.26949245 -0.05098471
0.15041628 -0.27997231 -0.050444771
0.24447209 -0.25894228 -0.049927883
-0.32146025 -0.15014711 -0.051165901
-0.28052169 -0.14576317 -0.052242972
0.26783925 -0.15161125 -0.056818727
0.34976754 -0.14089338 -0.024075812
0.43642646 -0.13181156 -0.020731475
-0.32145679 -0.049791753 -0.051377989
-0.2806271 -0.046902459 -0.051651534
0.26445338 -0.05165692 -0.051749483
0.378016 -0.093726449 -0.012973489
0.46274924 -0.058630846 -0.0233
0.51318032 -0.030026961 -0.016399493
-0.32143205 0.050617781 -0.051379502
-0.28088912 0.051545218 -0.049721882
0.26104239 0.050888814 -0.051594131
0.48285478 0.046128575 -0.021559795
0.52617866 0.053159587 -0.020950917
-0.32138145 0.15012652 -0.051283818
-0.28081468 0.15453303 -0.051701352
0.26053351 0.15249015 -0.051644824
0.30372909 0.19750357 -0.019953838
0.47896403 0.15879604 -0.02196173
0.52876765 0.14882594 -0.021319441
-0.32156008 0.25030369 -0.050619431
-0.28086641 0.25302786 -0.050924737
0.25754383 0.25165832 -0.054813102
0.3511399 0.24597736 -0.022948597
0.45006415 0.25323221 -0.023132028
0.51672709 0.22922044 -0.01801437
-0.31801185 0.33283111 -0.048448183
-0.28503841 0.33817866 -0.0548959
0.25048301 0.33549657 -0.050965421
-0.31791088 -0.23464836 0.047727786
-0.25587547 -0.28222528 0.049801532
-0.15028206 -0.27285382 0.049266897
-0.049809217 -0.26774663 0.050133642
0.050839644 -0.2693429 0.049714018
0.15040375 -0.27979454 0.049642928
0.24406585 -0.2592465 0.049193565
-0.32158124 -0.15013927 0.049495783
-0.2802231 -0.14479849 0.052770562
0.26754317 -0.15125577 0.055766687
0.34926564 -0.14137921 0.026277851
0.436542 -0.132572 0.022179684
-0.32134369 -0.049638923 0.050370663
-0.28092897 -0.046919953 0.050490752
0.26368421 -0.051651776 0.050765313
0.38032281 -0.093021922 0.018001664
0.45970139 -0.057540365 0.026452772
0.51320988 -0.0307447 0.017098464
-0.3213253 0.050516304 0.050192937
-0.28105435 0.052968007 0.050431244
0.26045829 0.050826266 0.050154209
0.47844946 0.046115618 0.025282249
0.52633542 0.052882187 0.022281611
-0.32151467 0.15035607 0.049668685
-0.28098541 0.15475312 0.05023507
0.26016915 0.15323074 0.050889947
0.30412355 0.19778407 0.021321468
0.47488815 0.15699448 0.025420431
0.52851969 0.14939816 0.023612171
-0.32140142 0.25027612 0.04995016
-0.28108826 0.25307453 0.049684376
0.25708446 0.25167727 0.054657739
0.35100412 0.24678467 0.025242649
0.44912693 0.25376797 0.02522731
0.51714754 0.22889598 0.018519601
-0.31796327 0.3328591 0.047896057
-0.28491485 0.33788908 0.053438947
0.2501207 0.3354021 0.050309271
-0.30583915 -0.22604151 0.11255309
-0.25289464 -0.26156619 0.15027945
-0.1506857 -0.28090653 0.15005103
-0.049858905 -0.2755504 0.15026583
0.050418861 -0.27768895 0.15009329
0.15409443 -0.27998444 0.15325575
0.22465985 -0.24371025 0.14101656
-0.3060841 -0.14953274 0.11394799
-0.2746928 -0.14989954 0.16132054
-0.19576472 -0.15276265 0.19218259
0.18349941 -0.14745751 0.17862979
0.22970952 -0.15103978 0.14964578
-0.30619785 -0.049580723 0.11406507
-0.2727302 -0.049179502 0.16146748
-0.19265465 -0.042201385 0.19530137
0.18167993 -0.047820445 0.17655398
0.2296654 -0.04990099 0.1487274
-0.3062436 0.050130192 0.11416183
-0.27072164 0.0509292 0.16081536
-0.19411154 0.054004785 0.19431268
0.17850718 0.051809464 0.17526855
0.2293452 0.050878957 0.14812255
-0.3060455 0.14954379 0.11385112
-0.26856613 0.15105779 0.15964752
-0.19375266 0.15161698 0.194227
0.17650922 0.1538828 0.171372
0.22865283 0.15097389 0.1480477
-0.30622113 0.25013945 0.11336245
-0.26525745 0.25070742 0.15854041
-0.19289015 0.25574157 0.19471863
0.17449719 0.25298983 0.16923699
0.22809982 0.25058046 0.14687882
-0.30567291 0.32627961 0.11260722
-0.26105711 0.33566281 0.15542676
-0.19491422 0.32896852 0.19407053
0.17728396 0.33764994 0.17203189
0.22530334 0.3334806 0.14197609
-0.22304818 -0.23548196 0.22037858
-0.14847383 -0.25721952 0.24836843
-0.050390948 -0.26645496 0.26016429
0.049814515 -0.26234278 0.25735024
0.14134946 -0.24636306 0.23146261
0.20147382 -0.2194315 0.20281282
-0.226537 -0.15031672 0.22379343
-0.15139028 -0.15000857 0.26877761
-0.054975241 -0.14952064 0.2920081
0.053522445 -0.15012534 0.2844103
0.14931548 -0.15010554 0.23892574
0.20154667 -0.14296909 0.20258667
-0.22653107 -0.04941931 0.22366218
-0.15123583 -0.049204927 0.26751477
-0.054726925 -0.048913132 0.29078612
0.054368597 -0.049268719 0.28274098
0.14904459 -0.049468383 0.23843957
0.20087358 -0.058554586 0.20288503
-0.22633882 0.050321698 0.2237487
-0.15106583 0.051134713 0.26549608
-0.054345421 0.050907657 0.28914165
0.054123897 0.050655711 0.28078344
0.14828299 0.050645154 0.23796532
0.20103277 0.059938915 0.20294267
-0.22625737 0.1503014 0.22390093
-0.15093452 0.15098687 0.26358867
-0.053621501 0.15039343 0.28625089
0.053169496 0.15082799 0.27881145
0.1476337 0.15069647 0.23739167
0.20134874 0.14251456 0.2025062
-0.22672088 0.25007766 0.22339682
-0.15050115 0.25057879 0.26050842
-0.052916814 0.25111276 0.28285539
0.053351842 0.25064772 0.27561799
0.14663632 0.25062498 0.2363755
0.20132627 0.25700071 0.20316887
-0.22328654 0.33167037 0.22119141
-0.15062043 0.33473277 0.25428659
-0.05127912 0.33602068 0.27913466
0.052378405 0.33458951 0.27048793
0.14274307 0.33362833 0.23293193
0.20089161 0.3201777 0.20340867
-0.036222856 -0.22267605 0.30249727
0.013561704 -0.22276434 0.30183423
-0.035956353 -0.15027755 0.30262774
0.013006539 -0.1480245 0.30196023
-0.036409605 -0.049816363 0.30262199
0.013049178 -0.049305078 0.30191642
-0.036680374 0.050008982 0.30273443
0.012843621 0.052049927 0.30210063
-0.036432046 0.1506723 0.30279145
0.012966026 0.14869733 0.30195433
-0.03715032 0.25004467 0.30266482
0.012108492 0.25006106 0.30196679
-0.036571518 0.32235879 0.30249563
0.012320363 0.32366148 0.30166009
