# .PCD v0.7 - Point Cloud Data file format
VERSION 0.7
FIELDS x y z
SIZE 4 4 4
TYPE F F F
COUNT 1 1 1
WIDTH 619
HEIGHT 1
VIEWPOINT 0 0 0 1 0 0 0
POINTS 619
DATA ascii
-0.11193506 -0.43562582 -0.40366748
-0.046754777 -0.44010147 -0.4111647
0.04731705 -0.44023991 -0.41092941
0.11236201 -0.43768606 -0.40354827
-0.11243379 -0.34877801 -0.40372029
-0.047544502 -0.35037908 -0.41157183
0.048848122 -0.35018203 -0.41153631
0.11250813 -0.35181966 -0.40373024
-0.11036476 -0.24980307 -0.40427452
-0.047808446 -0.25006416 -0.41138372
0.049246933 -0.24994339 -0.41150177
0.11217 -0.25023693 -0.40379035
-0.11134509 -0.15056439 -0.40378782
-0.04673484 -0.14975299 -0.41163766
0.049916185 -0.14982472 -0.41154158
0.11363106 -0.14688742 -0.40348476
-0.11230403 -0.05009602 -0.40354326
-0.046667945 -0.050661162 -0.41173902
0.049537636 -0.049750783 -0.41136625
0.11364971 -0.049272262 -0.40354562
-0.11148603 0.050451633 -0.40360653
-0.047099601 0.049392715 -0.41169471
0.049702756 0.050759304 -0.41154754
0.11377191 0.050684217 -0.40343568
-0.11052375 0.14973705 -0.40434191
-0.047070652 0.15013891 -0.41150182
0.049118124 0.15047118 -0.41150981
0.11310059 0.15056016 -0.40370843
-0.1127831 0.24874131 -0.40368593
-0.048088111 0.25011271 -0.41146576
0.049319435 0.24983591 -0.41143924
0.11184468 0.24920332 -0.40422875
-0.11141247 0.34728113 -0.40381122
-0.04834253 0.34935549 -0.41140565
0.048249602 0.35057977 -0.41141647
0.11219624 0.34855986 -0.40413836
-0.11142893 0.43128023 -0.4037317
-0.046957992 0.43785205 -0.41031575
0.045771264 0.43796515 -0.41036442
0.1112335 0.43304393 -0.40435627
-0.24098036 -0.44622758 -0.33060884
-0.1507906 -0.45641768 -0.3607645
-0.051257342 -0.46986076 -0.35154578
0.051713064 -0.47004744 -0.35177094
0.15078628 -0.45673853 -0.3601796
0.24068491 -0.44577995 -0.33106646
-0.24437568 -0.35061362 -0.33417901
-0.15580124 -0.34967458 -0.38183916
-0.062535822 -0.35854003 -0.34417358
0.062256876 -0.35985571 -0.34706703
0.15585053 -0.35025445 -0.3811343
0.24478289 -0.35030118 -0.33407554
-0.24474278 -0.24981749 -0.33416557
-0.15620518 -0.25055879 -0.38145193
-0.065909982 -0.24845034 -0.35041526
0.062754393 -0.24849601 -0.34849119
0.15556644 -0.25035003 -0.38131964
0.24499425 -0.25028777 -0.33407676
-0.24443847 -0.14932579 -0.33422157
-0.155966 -0.15016888 -0.38069919
-0.067745075 -0.15033948 -0.354303
0.067540318 -0.15052226 -0.35483864
0.15635812 -0.1506692 -0.38054731
0.24501483 -0.15000406 -0.33394158
-0.24413943 -0.050589204 -0.33453745
-0.15415305 -0.050468054 -0.38061517
-0.061081085 -0.048817441 -0.34177628
0.062459752 -0.048381995 -0.34573323
0.15506345 -0.050684668 -0.37998673
0.24414027 -0.050009049 -0.33458272
-0.24430603 0.049575236 -0.33429885
-0.15393193 0.049488664 -0.37962258
-0.061112031 0.05304591 -0.34045017
0.063169554 0.05150504 -0.34085467
0.15567987 0.05043314 -0.37870902
0.2448739 0.049969129 -0.33406278
-0.2443193 0.15019158 -0.33448315
-0.15469007 0.15074252 -0.37888283
-0.057939336 0.15263753 -0.33354348
0.054830018 0.15299587 -0.33258519
0.15455452 0.15038915 -0.37887859
0.24503008 0.149988 -0.33397758
-0.24482754 0.25009 -0.33390212
-0.1519514 0.25126621 -0.37265697
-0.053695261 0.25468892 -0.3339743
0.054852806 0.25426659 -0.33409557
0.15179248 0.25140756 -0.37280613
0.2445662 0.24974817 -0.33418167
-0.24430411 0.34980336 -0.33415398
-0.15137364 0.35154715 -0.36483762
-0.053737111 0.35229018 -0.34728161
0.054073531 0.35204524 -0.34766605
0.15140121 0.3521978 -0.36500755
0.24477594 0.350261 -0.33389512
-0.23933603 0.44367304 -0.32964009
-0.1526503 0.44629326 -0.36052564
-0.054360248 0.45275059 -0.37117884
0.052698318 0.45203704 -0.37076557
0.15267752 0.44650441 -0.36099225
0.23975585 0.44426677 -0.32917961
-0.33108127 -0.4463748 -0.24012314
-0.25475392 -0.46697628 -0.25458008
-0.15085874 -0.46149033 -0.25056496
-0.050610714 -0.45512378 -0.2495403
0.049859196 -0.45533848 -0.25078794
0.1493527 -0.46136621 -0.25026914
0.25389382 -0.46731916 -0.25443071
0.3304016 -0.44682017 -0.24150215
-0.33409044 -0.34993467 -0.24475397
-0.27614057 -0.35305253 -0.27514467
-0.14981624 -0.38102603 -0.25039974
-0.050871994 -0.39450577 -0.24912326
0.051267952 -0.3945086 -0.24895251
0.15110444 -0.38127124 -0.25042728
0.27434069 -0.3540599 -0.27415913
0.33370909 -0.35055032 -0.24566066
-0.33374855 -0.2494866 -0.24517392
-0.28057981 -0.25070855 -0.28087223
-0.16526668 -0.24943171 -0.2771216
0.16702618 -0.24255018 -0.27864516
0.27925009 -0.25135389 -0.28015977
0.33352879 -0.25026509 -0.24614042
-0.33373663 -0.14993574 -0.24524668
-0.27821544 -0.15024991 -0.27728501
-0.16153859 -0.14685152 -0.27881134
0.16172667 -0.14745824 -0.28048444
0.27647334 -0.14724632 -0.27575466
0.33401507 -0.15049228 -0.24550369
-0.33344641 -0.050891697 -0.24550696
-0.27093798 -0.047956824 -0.2724725
-0.16257571 -0.046917897 -0.2789641
-0.095028579 -0.042024612 -0.29960504
0.16273755 -0.04466904 -0.28082165
0.27211174 -0.048447467 -0.27186617
0.33439031 -0.050305717 -0.24527416
-0.33370587 0.049502794 -0.24526943
-0.2669889 0.051005945 -0.26800954
-0.16224384 0.052375063 -0.27945781
0.16205333 0.054006469 -0.28026322
0.26756692 0.050551642 -0.26787823
0.33396551 0.04982432 -0.24570853
-0.33390003 0.14998281 -0.24501772
-0.26370957 0.15124609 -0.26354066
-0.16177575 0.15129018 -0.27886385
0.16244356 0.15204588 -0.27968153
0.26332581 0.15142035 -0.26370311
0.33333468 0.14983794 -0.24644506
-0.33420214 0.2501522 -0.24452373
-0.25808671 0.25453579 -0.25663599
-0.16842523 0.25079983 -0.28210911
0.16882458 0.25183693 -0.28254965
0.25651398 0.25455138 -0.25647995
0.33392546 0.24964261 -0.24552931
-0.33391568 0.35047206 -0.24474542
-0.25748268 0.3520692 -0.25759789
-0.1824294 0.34191552 -0.28965133
0.18219985 0.33795151 -0.28965783
0.25773028 0.35315636 -0.25774226
0.33358714 0.35015056 -0.24536231
-0.32988685 0.44387209 -0.23891284
-0.26592216 0.447512 -0.2661272
-0.19314779 0.41693947 -0.29427642
0.19313174 0.42344287 -0.2952469
0.26597098 0.44703037 -0.26656079
0.32946154 0.44506052 -0.23912799
-0.40376398 -0.43764105 -0.11190476
-0.36032492 -0.45652148 -0.15008499
-0.24994051 -0.46132979 -0.14985678
-0.15069562 -0.44912243 -0.15032436
-0.049674712 -0.44289902 -0.14997151
0.050382324 -0.44299597 -0.15071793
0.15031375 -0.44924003 -0.1511344
0.25053996 -0.46155268 -0.15032028
0.35976505 -0.45715091 -0.15153691
0.40310639 -0.43502569 -0.11507932
-0.40368867 -0.35217977 -0.1122034
-0.38184911 -0.35020566 -0.15582126
-0.25438866 -0.37852684 -0.15049084
-0.151116 -0.39453551 -0.14713565
-0.050489232 -0.39457408 -0.15109037
0.050501525 -0.39455572 -0.14948016
0.14888959 -0.39452741 -0.14891611
0.25343657 -0.38069454 -0.15089525
0.38087684 -0.35046923 -0.15879087
0.40392074 -0.34969407 -0.11318421
-0.40397632 -0.24874306 -0.11078842
-0.38151547 -0.24999024 -0.15491933
-0.27742639 -0.24645805 -0.16461733
0.27940184 -0.24908195 -0.16441278
0.38090065 -0.25051337 -0.15905441
0.40391317 -0.24847774 -0.11344099
-0.40358624 -0.15026198 -0.11306398
-0.38082683 -0.14963591 -0.15579763
-0.27864215 -0.15253499 -0.16127701
0.28026712 -0.14668737 -0.1628024
0.37982935 -0.15027164 -0.15849344
0.40399024 -0.15037403 -0.11381891
-0.4034144 -0.050279241 -0.11286154
-0.38024622 -0.050366789 -0.1550705
-0.27933317 -0.046929434 -0.16096731
0.27925342 -0.049674496 -0.16474164
0.37897778 -0.049986534 -0.1566471
0.40414709 -0.049270537 -0.11275927
-0.40341756 0.050759535 -0.11324597
-0.37927359 0.050282501 -0.15504959
-0.27756554 0.052186966 -0.16357845
0.28045329 0.0502882 -0.162523
0.37905762 0.05041663 -0.15715945
0.40422025 0.050668925 -0.1140826
-0.40381697 0.14859509 -0.11230374
-0.37875322 0.15060654 -0.15363757
-0.27924648 0.15133706 -0.16181827
0.2790266 0.15131582 -0.16326314
0.377518 0.15006971 -0.15648162
0.40401652 0.14839414 -0.11415783
-0.40421709 0.25064063 -0.11161441
-0.37366894 0.25113592 -0.1519216
-0.28261229 0.24905634 -0.16608649
0.28249756 0.24919438 -0.16848345
0.37121049 0.25125322 -0.15404296
0.40423343 0.25032255 -0.11302038
-0.4042514 0.35100234 -0.11195151
-0.36526027 0.35116491 -0.15116011
-0.28899118 0.34005857 -0.18255211
0.28967029 0.3388755 -0.18334377
0.36301446 0.35230979 -0.15351126
0.40327376 0.34930086 -0.11517614
-0.403887 0.43192914 -0.11244221
-0.36080641 0.44631496 -0.15250728
-0.29563683 0.42512825 -0.19356081
0.29602164 0.41845831 -0.19110283
0.36043566 0.44706598 -0.15315706
0.40408632 0.43220592 -0.11279979
-0.41079977 -0.43996999 -0.047846001
-0.35133922 -0.47019029 -0.051557958
-0.24992692 -0.45516756 -0.050162178
-0.14994369 -0.44288415 -0.050652724
-0.050232571 -0.43677971 -0.050536782
0.050799649 -0.43687749 -0.051608615
0.15062121 -0.44298249 -0.050833773
0.24999785 -0.45529437 -0.051897921
0.35061583 -0.47044146 -0.050783988
0.41121355 -0.44138238 -0.050167203
-0.41145724 -0.35030305 -0.048424199
-0.3500056 -0.35593295 -0.069090329
-0.24606387 -0.39446682 -0.050865073
-0.15209962 -0.3945491 -0.051390093
-0.050130699 -0.39462128 -0.052267078
0.053050689 -0.39459774 -0.051524058
0.1502448 -0.39453036 -0.051622368
0.24700852 -0.39450738 -0.051939573
0.32555169 -0.362836 -0.054982156
0.45032737 -0.35733542 -0.060330175
0.54826474 -0.34527791 -0.048440482
0.62188381 -0.31926426 -0.040947355
-0.41137025 -0.25032574 -0.048975281
-0.35298371 -0.24880247 -0.065898091
-0.29698172 -0.29939711 -0.099534482
0.34274712 -0.24344003 -0.062411934
0.43362489 -0.25657254 -0.048996255
0.58038944 -0.28895849 -0.028960194
0.65911579 -0.25397888 -0.049135461
0.70621914 -0.21290083 -0.028950697
-0.41133749 -0.14963518 -0.049049526
-0.34871766 -0.14649063 -0.065973364
0.34335059 -0.1461615 -0.060991473
0.41254747 -0.15066841 -0.049327552
0.67781472 -0.15753835 -0.049766827
0.72313839 -0.14733236 -0.045690905
-0.41121021 -0.050204158 -0.050127354
-0.33396634 -0.047397304 -0.057694718
-0.29933971 -0.0088397861 -0.095444545
0.29921925 -0.024780989 -0.096246064
0.33894157 -0.047524273 -0.059733752
0.41243073 -0.051113743 -0.048582941
0.68688375 -0.05462626 -0.031511523
0.73632228 -0.04901607 -0.05149883
-0.41137132 0.050083432 -0.048880439
-0.33702129 0.052233014 -0.058842342
-0.29960757 0.039381564 -0.09618935
0.33656645 0.051543653 -0.058161419
0.41248763 0.049222697 -0.048769251
0.6871981 0.054764722 -0.030250067
0.73611867 0.049723722 -0.051874358
-0.41137961 0.15029083 -0.048916448
-0.33473778 0.15185021 -0.058669366
0.29958454 0.16779138 -0.099259943
0.33082592 0.15318598 -0.057054516
0.41220835 0.14930242 -0.050518259
0.6776346 0.15731049 -0.048832145
0.72283542 0.14780371 -0.046308301
-0.41142145 0.25010407 -0.048524566
-0.33494779 0.25257763 -0.055908799
0.33047664 0.25355327 -0.052992895
0.43266907 0.25610837 -0.048448384
0.58321398 0.28961581 -0.03014186
0.65997016 0.25372404 -0.04946715
0.70613396 0.21333358 -0.029143753
-0.41129941 0.35012764 -0.048238397
-0.34749168 0.35214838 -0.054793477
0.34498736 0.35191035 -0.051727567
0.45083874 0.35765389 -0.060126074
0.54814899 0.34583077 -0.048569851
0.62215376 0.31984857 -0.040984835
-0.41029063 0.43696737 -0.04813239
-0.37152973 0.45328444 -0.053561646
0.37096003 0.45326647 -0.052760217
0.41043681 0.43947831 -0.048954051
-0.41096085 -0.43944725 0.047313243
-0.35143459 -0.47025847 0.04977642
-0.2501252 -0.45518839 0.049187802
-0.15016241 -0.44288611 0.049636722
-0.050083112 -0.43676388 0.049274236
0.050862014 -0.43685934 0.05026418
0.14984635 -0.44295314 0.050145455
0.24971585 -0.45523906 0.050070159
0.35126564 -0.46973315 0.050121129
0.41067857 -0.44206709 0.045789964
-0.41149095 -0.35020486 0.047626812
-0.35318694 -0.35821772 0.066312023
-0.24541275 -0.39442077 0.047900222
-0.15267223 -0.39456049 0.047418833
-0.050332792 -0.39462867 0.048249763
0.052946337 -0.3946076 0.047027916
0.14995642 -0.39454168 0.046915513
0.24804579 -0.3944031 0.048341099
0.34565324 -0.35948166 0.062202718
0.45164722 -0.35813713 0.06204408
0.54754257 -0.34566471 0.050992027
0.62166232 -0.31972399 0.040729675
-0.41137299 -0.25011548 0.047639202
-0.34562394 -0.25018334 0.06506592
0.35538861 -0.24713643 0.065500312
0.43264219 -0.25689036 0.048613459
0.57915455 -0.28784472 0.036520615
0.65734583 -0.25289527 0.052388359
0.70696759 -0.21228954 0.02795233
-0.41138586 -0.14963408 0.047976561
-0.34258318 -0.14465037 0.059759997
0.29947495 -0.1847955 0.09329994
0.34640971 -0.14879815 0.061805699
0.41072252 -0.14983766 0.049439352
0.67334318 -0.1552528 0.057998322
0.7236948 -0.14808689 0.04534366
-0.41146442 -0.050000824 0.04660337
-0.33983913 -0.048280295 0.059805602
-0.29910564 -0.052594364 0.097473495
0.33481765 -0.047358919 0.056490552
0.41066813 -0.050786372 0.049133461
0.68508244 -0.051464271 0.047896132
0.73773593 -0.049516749 0.052155796
-0.41128877 0.050432142 0.047962382
-0.33452675 0.049821094 0.056359168
-0.29956368 0.053808212 0.096785426
0.33746412 0.051484898 0.058253273
0.41091827 0.049728114 0.049188904
0.68521923 0.051790729 0.047822852
0.73798966 0.050176125 0.051789016
-0.4114328 0.15062088 0.047629789
-0.32953754 0.15359852 0.054785479
0.33574826 0.15215483 0.057784587
0.41104284 0.14949301 0.048250649
0.67373419 0.15459673 0.057341926
0.72370899 0.14774926 0.0458453
-0.41139522 0.25038263 0.047607265
-0.33506501 0.25483686 0.054977823
0.33485445 0.25446928 0.053684447
0.43141237 0.2563881 0.048813581
0.5834232 0.28854299 0.040544186
0.65727001 0.25261417 0.05230847
0.70631689 0.21366616 0.027281854
-0.41136226 0.35009181 0.048098899
-0.34720087 0.35057881 0.053357404
0.34841192 0.35204995 0.053325381
0.45206916 0.35844046 0.061710116
0.5478819 0.34646302 0.050649419
0.62252796 0.3199358 0.04072703
-0.41037223 0.43695149 0.046455804
-0.37102637 0.45360273 0.051689561
0.37172282 0.45343894 0.053037636
0.41002169 0.43937099 0.046161823
-0.40372014 -0.43683726 0.11170535
-0.36043277 -0.45638207 0.14987615
-0.24995166 -0.4613722 0.15019459
-0.15114765 -0.44913173 0.14988868
-0.049893059 -0.44287989 0.14986221
0.050176658 -0.44303623 0.15082748
0.15051028 -0.44920146 0.15051319
0.24985351 -0.46146479 0.15017112
0.35954872 -0.45713365 0.1507445
0.40391746 -0.43858707 0.11286606
-0.40331772 -0.34971979 0.11266721
-0.38109627 -0.35002911 0.15591933
-0.25360677 -0.37939724 0.15162534
-0.15081516 -0.39453763 0.14699309
-0.050759558 -0.39457485 0.15079515
0.050796688 -0.39455587 0.14929283
0.14874877 -0.39452684 0.14885429
0.25301397 -0.38117245 0.15047298
0.38087022 -0.34999773 0.15522997
0.402679 -0.35433045 0.1126179
-0.40404227 -0.25112191 0.11179634
-0.38146392 -0.24996756 0.15504593
-0.2792688 -0.2462023 0.16182704
0.27904117 -0.24880944 0.16144314
0.37976283 -0.2502034 0.15587997
0.40284649 -0.24847509 0.11390809
-0.4036611 -0.14925665 0.11316987
-0.3807247 -0.14959191 0.15537906
-0.27921495 -0.15063818 0.16080627
0.27926043 -0.14445896 0.16348335
0.3792167 -0.15068735 0.15478006
0.40306243 -0.14855452 0.1171205
-0.4039785 -0.050416332 0.1114189
-0.38042024 -0.050230522 0.1546956
-0.27908278 -0.048175883 0.16320696
0.27930957 -0.049136497 0.16102521
0.37899125 -0.050387826 0.15369163
0.40369126 -0.048312116 0.1153817
-0.40350276 0.050870549 0.11299987
-0.37947163 0.050010312 0.15447941
-0.27967647 0.051775657 0.16251887
0.27839771 0.051964857 0.1634814
0.37808099 0.050260983 0.15410435
0.40322906 0.047204975 0.1168112
-0.40408951 0.15029521 0.11202904
-0.37881789 0.1499552 0.15403892
-0.27857313 0.15205202 0.16259143
0.28023449 0.15197557 0.16156842
0.37689283 0.15066895 0.15372199
0.40311593 0.14923188 0.1160055
-0.40321159 0.24788636 0.11273275
-0.37305135 0.25129378 0.15259014
-0.28231949 0.24846573 0.16691065
0.28232917 0.24946193 0.16800416
0.37122968 0.25146407 0.15096319
0.40367717 0.24837407 0.11167323
-0.40355867 0.35067448 0.1126903
-0.36491978 0.35200709 0.15109298
-0.28914151 0.3401942 0.1825846
0.28924587 0.34008569 0.18307173
0.36295375 0.35258681 0.15112621
0.40274519 0.35418856 0.11098491
-0.40350699 0.43189779 0.11264952
-0.36038217 0.44661355 0.15257664
-0.2948893 0.42176545 0.19363238
0.29677308 0.42181006 0.19107337
0.36067882 0.44709125 0.15280063
0.40321058 0.43492845 0.11240902
-0.33126244 -0.44603962 0.23976861
-0.2550135 -0.4667719 0.25460061
-0.15095101 -0.4615069 0.25030267
-0.050800312 -0.45517385 0.24957567
0.049974814 -0.45541123 0.25101683
0.14942403 -0.4612641 0.24932499
0.25374812 -0.46719962 0.25407684
0.33040178 -0.44637907 0.24113549
-0.33397231 -0.35021403 0.24479713
-0.27614838 -0.35282251 0.27460235
-0.15046237 -0.38173732 0.2502355
-0.050688099 -0.39453381 0.24829163
0.052574709 -0.39449045 0.24991512
0.14936791 -0.38163507 0.25021178
0.27363339 -0.35456398 0.27393764
0.33351386 -0.3501853 0.2449327
-0.33355537 -0.25014004 0.24552384
-0.27954116 -0.24973997 0.27887997
-0.16320787 -0.24674749 0.27929628
0.094125241 -0.28068531 0.29926777
0.16068503 -0.24710988 0.27899659
0.27980596 -0.25093859 0.27858374
0.33295733 -0.25041324 0.24553366
-0.33378392 -0.15008238 0.24513099
-0.27759168 -0.14884402 0.27588367
-0.1625594 -0.14661567 0.27915785
0.16287965 -0.14769389 0.27834341
0.27919132 -0.14917129 0.27864799
0.33331782 -0.15033762 0.24488348
-0.33438492 -0.050833791 0.24406174
-0.27313337 -0.048007742 0.27353442
-0.1610381 -0.045301713 0.2795471
-0.097553492 -0.038351834 0.29870489
0.096998006 -0.091987789 0.29923218
0.16105594 -0.04458705 0.27918699
0.27152127 -0.049462337 0.273444
0.33358446 -0.049955305 0.24411416
-0.33389214 0.049236245 0.24486147
-0.26745832 0.050836813 0.26718172
-0.16166839 0.053171452 0.2795772
0.098033577 0.082110643 0.29962304
0.16086069 0.055942416 0.2800228
0.26829457 0.05011696 0.2693949
0.33329818 0.049859609 0.24483502
-0.3339209 0.14974771 0.24499793
-0.26243493 0.15124692 0.26265696
-0.16151763 0.15414135 0.27973375
-0.098408401 0.10662431 0.29903033
0.1609676 0.15140963 0.27962521
0.26328209 0.15097643 0.26246154
0.33265975 0.14972356 0.24582174
-0.33390981 0.2498236 0.24483398
-0.25753239 0.2548607 0.25653538
-0.16761675 0.25021699 0.28231627
0.167338 0.25116855 0.28243658
0.25644761 0.25464109 0.25614342
0.33335203 0.24960621 0.24473849
-0.33408892 0.35033029 0.24430649
-0.25762674 0.35243002 0.25763983
-0.18187271 0.34048548 0.28951207
0.18155415 0.33948725 0.2897934
0.25677332 0.35296702 0.25737411
0.33335298 0.34995463 0.24482651
-0.33022338 0.4435598 0.23902033
-0.26590815 0.44763017 0.26516798
-0.19370396 0.42101121 0.29441443
0.1947944 0.42862999 0.29566371
0.26585558 0.44754243 0.26615012
0.3289462 0.44437641 0.23958647
-0.24126536 -0.4462828 0.33034635
-0.15122896 -0.45628276 0.36068252
-0.051049292 -0.47008377 0.35111132
0.051567003 -0.47029185 0.35130969
0.15106307 -0.45623004 0.36038247
0.24169801 -0.44615263 0.3301473
-0.24532044 -0.35056654 0.33361927
-0.15576403 -0.35068524 0.38141134
-0.061849084 -0.35598055 0.34739923
0.066156588 -0.35691556 0.35112461
0.15673007 -0.35002309 0.38122323
0.24582972 -0.35019851 0.33317563
-0.24540094 -0.25034308 0.33341929
-0.15552302 -0.25024894 0.38100883
-0.065511346 -0.24918447 0.35124746
0.066044293 -0.24782364 0.35581324
0.15635626 -0.25056139 0.38105136
0.24575564 -0.24998149 0.33314151
-0.24574104 -0.14960659 0.33330211
-0.15621322 -0.15023629 0.38094142
-0.068117931 -0.15027139 0.35009035
0.065966278 -0.15049717 0.35175583
0.15580772 -0.150602 0.38100356
0.24481896 -0.15037002 0.33394599
-0.24509618 -0.050576784 0.33368027
-0.15443914 -0.050938748 0.38028985
-0.061299767 -0.051253982 0.34440202
0.057493489 -0.048197147 0.34014678
0.15510307 -0.0506729 0.37957421
0.24467891 -0.049995344 0.33402193
-0.24570699 0.049853791 0.33325639
-0.15495299 0.049544264 0.37891772
-0.060248658 0.053955335 0.33858156
0.058083259 0.051074553 0.33757854
0.15485774 0.049669843 0.37905002
0.24481194 0.050300494 0.3339662
-0.24552195 0.15055399 0.33332288
-0.1543548 0.15008864 0.37799647
-0.056359578 0.15478544 0.33393848
0.058090106 0.15227039 0.3344712
0.15550341 0.15031882 0.37868452
0.24542268 0.15016176 0.3333357
-0.24540059 0.24992216 0.33351791
-0.1521434 0.25124779 0.37316024
-0.054712661 0.25424567 0.33463556
0.055812452 0.25380713 0.33483925
0.15305595 0.25142387 0.37272057
0.24543956 0.24998562 0.33346462
-0.24505986 0.34985605 0.33360544
-0.15179245 0.35108215 0.36479732
-0.053915001 0.35177433 0.34823924
0.054491077 0.35139239 0.34747586
0.15200402 0.3524552 0.36471382
0.2458881 0.34997407 0.33287102
0.30100644 0.32045364 0.30001974
-0.23952314 0.44407246 0.32930452
-0.15253603 0.44635457 0.36066073
-0.054251257 0.45268738 0.37077495
0.052606478 0.45185715 0.37091783
0.15239872 0.44686964 0.36108342
0.23938496 0.44418001 0.32930166
-0.11154149 -0.43742222 0.40409961
-0.046885137 -0.44033286 0.41070634
0.048060518 -0.44059888 0.41070229
0.11263093 -0.43633419 0.40360478
-0.1116752 -0.34944448 0.40436226
-0.047018453 -0.35033309 0.41146401
0.048884496 -0.35014978 0.41136989
0.11364667 -0.35024098 0.40375823
-0.11158104 -0.25057343 0.40391997
-0.047617737 -0.250139 0.41141838
0.048979506 -0.25009173 0.41126913
0.11197109 -0.25028348 0.40423924
-0.11173289 -0.15005566 0.40407896
-0.047539443 -0.14995129 0.41142109
0.048646424 -0.14969316 0.41129613
0.11325068 -0.15079996 0.40400365
-0.11120757 -0.049491644 0.40372917
-0.047333855 -0.050331861 0.41143534
0.048414648 -0.050066896 0.41125137
0.11207346 -0.051019296 0.40394124
-0.1116196 0.049870282 0.40376911
-0.047661398 0.049764968 0.4113678
0.048751943 0.05019379 0.41122115
0.11309791 0.049842011 0.40384775
-0.11178161 0.14893754 0.40404314
-0.047394942 0.15075754 0.41141695
0.048864972 0.14984366 0.4112865
0.1121968 0.15100801 0.40414104
-0.11188205 0.2498412 0.4043116
-0.047446031 0.24994172 0.41139072
0.049269032 0.24964145 0.41119614
0.11361158 0.24881017 0.40378675
-0.11115494 0.35103005 0.4045223
-0.047253661 0.34976777 0.41126272
0.048895668 0.35049546 0.41120857
0.11301596 0.34947181 0.40382022
-0.11203063 0.43155715 0.40390781
-0.04622636 0.43775126 0.4102225
0.04774842 0.43779808 0.41028383
0.11378048 0.43103227 0.40356472
