# .PCD v0.7 - Point Cloud Data file format
VERSION 0.7
FIELDS x y z
SIZE 4 4 4
TYPE F F F
COUNT 1 1 1
WIDTH 595
HEIGHT 1
VIEWPOINT 0 0 0 1 0 0 0
POINTS 595
DATA ascii
-0.10696733 -0.40319398 -0.4016186
-0.044541132 -0.40676123 -0.40344638
0.014891354 -0.40691102 -0.40232435
-0.10600211 -0.34859875 -0.4017835
-0.045808733 -0.34914392 -0.4037292
0.018369474 -0.35031655 -0.40261284
-0.10896175 -0.25160983 -0.40126541
-0.045614455 -0.24933887 -0.40385714
0.017199054 -0.25201061 -0.40249237
-0.11028054 -0.14344558 -0.40133494
-0.047699142 -0.1503121 -0.40389264
0.016240707 -0.14927536 -0.40259153
-0.1044787 -0.053351823 -0.40202701
-0.048468716 -0.049801253 -0.40391073
0.01472226 -0.051653784 -0.40263572
-0.10627636 0.057310082 -0.4020279
-0.049251441 0.049867 -0.40393057
0.013926921 0.049011789 -0.40242806
-0.11264663 0.14539517 -0.40170684
-0.049514931 0.15132169 -0.40384129
0.011523529 0.1458203 -0.40276867
-0.11220055 0.2518239 -0.40182221
-0.049605452 0.25087613 -0.40386572
0.014103131 0.24835065 -0.402228
-0.11340261 0.35185242 -0.40201029
-0.050347112 0.35042852 -0.40381747
0.013636526 0.34996313 -0.40171117
-0.11251789 0.45115712 -0.4020091
-0.05157198 0.45008594 -0.40375277
0.014629077 0.44734776 -0.40201762
-0.11273947 0.5099436 -0.40208963
-0.04989814 0.51199669 -0.40327287
0.013090866 0.5089668 -0.40214857
-0.30341211 -0.40970132 -0.30260515
-0.23945078 -0.41690582 -0.32632697
-0.15046704 -0.41324151 -0.35072646
-0.052299928 -0.41325557 -0.37004882
0.049679603 -0.41166919 -0.3645916
0.14415437 -0.41097897 -0.33500639
0.214655 -0.40758991 -0.31141225
-0.30443075 -0.34641385 -0.30285996
-0.24943514 -0.35002297 -0.33542892
-0.14952615 -0.35280743 -0.37512362
-0.051305294 -0.36788958 -0.36387566
0.051047571 -0.36121684 -0.36812586
0.14936027 -0.35171589 -0.35050309
0.21568538 -0.35040781 -0.31409299
-0.30462325 -0.2477051 -0.30270046
-0.25008515 -0.24988936 -0.33637416
-0.15146601 -0.24935721 -0.37907904
-0.054668088 -0.2502844 -0.39205584
0.053650867 -0.24974695 -0.38569066
0.15112008 -0.25008112 -0.3504698
0.21583842 -0.24950486 -0.3124083
-0.30501306 -0.14478311 -0.30514514
-0.24994512 -0.14961475 -0.33770776
-0.15224573 -0.15005253 -0.37912875
-0.052853327 -0.14976153 -0.39060843
0.053245421 -0.14989267 -0.38445407
0.1510092 -0.14947633 -0.34965104
0.2148021 -0.15091711 -0.31130317
-0.30593106 -0.047671847 -0.30580217
-0.24979559 -0.048958298 -0.33849946
-0.15154916 -0.049428314 -0.37914214
-0.05287049 -0.0482709 -0.38913238
0.053404201 -0.049114004 -0.38344574
0.15091908 -0.048943054 -0.34745166
0.21450014 -0.049558297 -0.30990237
-0.30726105 0.052754644 -0.30612293
-0.24996336 0.050114255 -0.33908221
-0.15165311 0.050451376 -0.37815815
-0.052385125 0.051113442 -0.38731697
0.052893065 0.050854549 -0.3806468
0.14981535 0.050474759 -0.34633434
0.21348719 0.049166977 -0.3091878
-0.30752605 0.15125708 -0.30677545
-0.25007498 0.14989959 -0.34022385
-0.15268664 0.15008174 -0.37636343
-0.05191404 0.15016273 -0.38585043
0.051169865 0.15066361 -0.37888399
0.14967424 0.14941025 -0.34423891
0.21205741 0.14822289 -0.30907837
-0.30743831 0.25060081 -0.30793655
-0.24958459 0.25012833 -0.34083563
-0.15302241 0.24979854 -0.37480655
-0.05170751 0.25050867 -0.38250849
0.051925372 0.25074831 -0.37685141
0.14955197 0.2498717 -0.34256408
0.2106543 0.24801071 -0.30852878
-0.30945203 0.35257509 -0.30777127
-0.24807608 0.35028866 -0.34122136
-0.15254653 0.35070342 -0.37260541
-0.050738171 0.35107377 -0.37909916
0.051171832 0.35144314 -0.37290621
0.14779645 0.34998107 -0.34107792
0.2091572 0.3472594 -0.30783263
-0.31068698 0.45208278 -0.308191
-0.24785498 0.44992882 -0.3411454
-0.15252143 0.45088926 -0.36968878
-0.049568236 0.45178905 -0.37645841
0.051933091 0.45194766 -0.36905608
0.14801034 0.44940758 -0.33895659
0.20876075 0.44842786 -0.3062585
-0.30952066 0.51015097 -0.30844155
-0.24364263 0.51808006 -0.33244786
-0.15106682 0.51965183 -0.3636786
-0.049237728 0.52239054 -0.37372547
0.050992265 0.52267015 -0.36200663
0.14353032 0.52310127 -0.33089134
0.20892388 0.51540178 -0.30488586
-0.33361861 -0.41822127 -0.23908035
-0.25119877 -0.40874961 -0.25136045
-0.16428311 -0.40084431 -0.25010189
0.18176888 -0.40807122 -0.28564227
0.24970277 -0.40957212 -0.24964678
0.30614829 -0.40577251 -0.2117317
-0.34501415 -0.35019976 -0.24857581
-0.26458892 -0.35678589 -0.2667942
-0.12689565 -0.39281052 -0.24981089
-0.050584931 -0.39531347 -0.25035807
0.049693048 -0.39291763 -0.25038737
0.14714773 -0.39000559 -0.24722499
0.25808677 -0.35503465 -0.25492311
0.30757079 -0.35186923 -0.21254392
-0.34590647 -0.24988776 -0.2498477
-0.27515227 -0.24977839 -0.27696645
0.17177105 -0.25108513 -0.28025877
0.26457101 -0.24918137 -0.25858733
0.30724636 -0.25039172 -0.21181484
-0.34735653 -0.15031542 -0.25025859
-0.26915905 -0.15393843 -0.27488124
-0.19999042 -0.14214188 -0.29932636
0.17023005 -0.14651655 -0.27965999
0.26319847 -0.14937949 -0.25709885
0.30606678 -0.15148991 -0.20902371
-0.349298 -0.049698256 -0.25056243
-0.26624849 -0.050079655 -0.27377748
0.17291093 -0.043729492 -0.27734375
0.2623148 -0.048667561 -0.25391224
0.30633789 -0.051753163 -0.20844287
-0.40155452 0.09782666 -0.2018235
-0.35083857 0.051081788 -0.24975327
-0.26543894 0.053036913 -0.27088985
0.1684043 0.054302059 -0.27920601
0.25995678 0.050361384 -0.25268844
0.30598986 0.048153017 -0.20679052
-0.40104121 0.14923689 -0.20208634
-0.35161081 0.15018475 -0.2498582
-0.26553503 0.15095879 -0.27136111
0.16703938 0.1552144 -0.27693796
0.25742355 0.14962037 -0.25225356
0.30405974 0.14986295 -0.20646803
-0.40233126 0.26109293 -0.20200659
-0.35198608 0.25040308 -0.25072968
-0.2632992 0.2510359 -0.27390462
0.16705546 0.25289202 -0.27522588
0.25495011 0.24993664 -0.25172845
0.30366141 0.24509379 -0.2038267
-0.4024117 0.34983182 -0.20418388
-0.3531346 0.3505694 -0.24929321
-0.26700044 0.35387102 -0.27321538
0.16573088 0.35148463 -0.27389416
0.25162178 0.34977281 -0.25037718
0.30261028 0.34829891 -0.2039939
-0.40309244 0.45898777 -0.20717736
-0.35317242 0.45057997 -0.24822201
-0.26709628 0.45210022 -0.27442104
0.16559522 0.4517408 -0.27169916
0.24950524 0.45012832 -0.24891701
0.30212986 0.44176733 -0.20381303
-0.40199956 0.50883693 -0.20672573
-0.34360564 0.51676255 -0.24570335
-0.27476597 0.51750797 -0.28137919
0.17124398 0.5247941 -0.27667174
0.24149194 0.52499002 -0.24359103
0.30077374 0.51349241 -0.20341623
-0.41014814 -0.4153955 -0.12765111
-0.35197356 -0.4147374 -0.15147118
-0.24986637 -0.40271541 -0.15044419
-0.16486832 -0.40081179 -0.14989078
0.28495082 -0.40770924 -0.17089599
0.32233533 -0.40834334 -0.14289027
-0.41202906 -0.34943205 -0.13307598
-0.38123077 -0.35241213 -0.17348765
-0.24744134 -0.3747339 -0.15170482
-0.12696676 -0.39262202 -0.14952651
-0.050367881 -0.39520335 -0.15010874
0.048959646 -0.39291212 -0.149912
0.15046552 -0.39059058 -0.15026134
0.24441017 -0.38802242 -0.14652064
0.33504635 -0.35011744 -0.15082328
-0.4133715 -0.24939927 -0.13511743
-0.38476184 -0.24954487 -0.1764444
0.27971879 -0.24664776 -0.15863864
0.33293036 -0.24923141 -0.15202197
-0.41461939 -0.14880663 -0.13783281
-0.38353616 -0.15098189 -0.17694131
0.27735788 -0.14662181 -0.15701824
0.33098242 -0.14900523 -0.15145864
-0.41605884 -0.048884284 -0.13968401
-0.38273963 -0.050102402 -0.17622963
0.27704683 -0.046645429 -0.15439466
0.32903993 -0.049048226 -0.15066524
-0.41726595 0.051013626 -0.14208792
-0.37872007 0.050014671 -0.17167917
0.27581525 0.050723854 -0.15515703
0.32675812 0.050228018 -0.15119638
-0.4183614 0.15066421 -0.14468281
-0.37600282 0.14971228 -0.16846427
0.27361801 0.15285476 -0.15697803
0.32477418 0.14882711 -0.15066978
-0.41980174 0.25018337 -0.14670871
-0.37215605 0.24974413 -0.16325247
0.27342585 0.25452572 -0.15967995
0.32294041 0.2493781 -0.14992893
-0.42139053 0.35038874 -0.14736851
-0.36996588 0.35116139 -0.15914792
0.27152967 0.35267276 -0.15965231
0.32138625 0.34932074 -0.14789656
-0.4235113 0.45025945 -0.14780106
-0.37054119 0.45135289 -0.15605859
0.26994339 0.4518449 -0.16033497
0.31987348 0.4501771 -0.14624888
-0.41759109 0.51459032 -0.14014356
-0.37905407 0.51698983 -0.15968782
0.27433205 0.52829343 -0.15942071
0.31626084 0.52258456 -0.13880573
-0.42106754 -0.41978702 -0.047254272
-0.35143942 -0.40951821 -0.050367523
-0.2502279 -0.40270531 -0.050634664
-0.16505261 -0.40080225 -0.050628904
0.29921696 -0.40189224 -0.096726775
0.34006891 -0.4078033 -0.050709102
-0.42993495 -0.34996045 -0.050780337
-0.35130748 -0.36460793 -0.049213812
-0.24954018 -0.37482637 -0.049925711
-0.12740837 -0.39262962 -0.049658403
-0.050665092 -0.39499414 -0.050608262
0.049065605 -0.39246187 -0.050180502
0.15010117 -0.39036688 -0.05010302
0.25011727 -0.38844475 -0.050504301
0.35584137 -0.35552341 -0.049613755
0.45461768 -0.31701043 -0.035394557
0.52478844 -0.30887786 -0.026800189
-0.43236607 -0.25041002 -0.050627418
-0.38018423 -0.25226238 -0.052402351
0.29662687 -0.22807552 -0.080360919
0.36452645 -0.24634406 -0.059126355
0.45009348 -0.26581365 -0.049704693
0.55552804 -0.2593419 -0.048374273
0.62862539 -0.23143563 -0.037657078
-0.43455306 -0.15037154 -0.050983459
-0.38406745 -0.1492431 -0.051659778
0.29508609 -0.13632271 -0.074295871
0.35476398 -0.14782538 -0.051772799
0.58358145 -0.18145344 -0.028039042
0.65845382 -0.15388341 -0.047935195
0.70699441 -0.11803678 -0.025296969
-0.43659052 -0.04948223 -0.050887514
-0.38627994 -0.045969833 -0.052881185
0.29584312 -0.040611375 -0.064955898
0.35170868 -0.048262812 -0.049952976
0.67035365 -0.054243442 -0.050709751
0.72041094 -0.046571136 -0.037901804
-0.43871614 0.051437326 -0.051391844
-0.38794333 0.051758621 -0.053326849
0.29501998 0.056230925 -0.05897028
0.34882593 0.050863441 -0.049316783
0.67648083 0.051537529 -0.045732666
0.72670978 0.050484367 -0.042307552
-0.44043067 0.15034419 -0.05062601
-0.38882229 0.15183149 -0.054090437
0.29400739 0.15416685 -0.063277774
0.34641287 0.14919655 -0.050114363
0.66802305 0.15629734 -0.052031085
0.71791714 0.14599568 -0.036148753
-0.44150367 0.25065994 -0.049660623
-0.3903718 0.25364336 -0.05821776
0.29331535 0.25425163 -0.062701039
0.34461516 0.25001457 -0.050458793
0.57238299 0.27419284 -0.03579171
0.65330577 0.24912864 -0.046337001
0.70513821 0.20961171 -0.021385917
-0.44222128 0.34960106 -0.049057841
-0.39177129 0.35218433 -0.055799335
0.29205608 0.35344335 -0.057006005
0.35833311 0.35179311 -0.053281233
0.45142409 0.36195189 -0.043001261
0.54715466 0.3485662 -0.045088168
0.61965644 0.31789926 -0.032306507
-0.44176307 0.45014504 -0.048551612
-0.39236715 0.4517777 -0.059569828
0.29055923 0.45475101 -0.054144021
0.33993912 0.4519695 -0.049537718
0.44462547 0.4001649 -0.0038732053
-0.42982391 0.51572388 -0.048666753
-0.39432731 0.51119 -0.063150898
0.29100904 0.52301157 -0.059112746
0.32852247 0.52734029 -0.047604445
-0.42137533 -0.41979894 0.046240125
-0.35113463 -0.40945989 0.050125599
-0.2503038 -0.40270311 0.050513983
-0.16477726 -0.40078643 0.049704913
0.34005946 -0.40771356 0.050298899
-0.43009835 -0.35055846 0.049761701
-0.35097799 -0.3663739 0.050367955
-0.25033483 -0.37491581 0.048001748
-0.12728135 -0.39235413 0.049393922
-0.050739788 -0.39482823 0.049635116
0.049231987 -0.39235562 0.0492386
0.1498799 -0.39019567 0.049711201
0.25052807 -0.38811246 0.04975494
0.35597572 -0.35520124 0.04880292
0.45257142 -0.31773138 0.037556529
0.5243625 -0.30915198 0.0277171
-0.43234569 -0.25063363 0.05015476
-0.38213754 -0.25008962 0.052166671
0.29738864 -0.24937734 0.080408417
0.36460358 -0.24709229 0.05969616
0.45126852 -0.26401278 0.053685762
0.55461395 -0.25725213 0.052702274
0.62877202 -0.23147888 0.039471366
-0.43447405 -0.15020773 0.050529201
-0.38395932 -0.15138704 0.050360676
0.29615089 -0.14419368 0.072235644
0.35268882 -0.14813915 0.051940896
0.58248103 -0.18058293 0.035013814
0.65643454 -0.15244818 0.051530037
0.7072652 -0.11849963 0.024924753
-0.43681887 -0.049093459 0.049593039
-0.38610008 -0.045503259 0.048396066
0.29610652 -0.050530318 0.073105887
0.34973142 -0.048946373 0.049854562
0.66431862 -0.052708838 0.055937827
0.72091216 -0.047361173 0.038722578
-0.43871993 0.051245783 0.049851455
-0.38774925 0.053727366 0.05300549
0.2949872 0.057182129 0.064435855
0.34715658 0.050505653 0.050330337
0.67085969 0.050984807 0.052661773
0.72760379 0.051034246 0.043127667
-0.44053841 0.15028667 0.049064841
-0.38912633 0.15109551 0.054938972
0.2937777 0.15249044 0.058980573
0.34525126 0.14987719 0.049369432
0.66157281 0.155388 0.056247234
0.71825606 0.1459852 0.037267838
-0.44191644 0.24959762 0.049520846
-0.39054582 0.25267825 0.055708066
0.29290172 0.25420985 0.061946474
0.34286648 0.25026497 0.048919063
0.56946862 0.27161068 0.042403761
0.65275335 0.24796641 0.049358543
0.70459062 0.21029377 0.020330545
-0.4419544 0.34989464 0.047958922
-0.39168125 0.35079136 0.057625394
0.2917071 0.35437822 0.057636704
0.35879266 0.35177386 0.055132311
0.4514021 0.36106953 0.046961557
0.54749 0.34855482 0.047631957
0.62042987 0.31759128 0.033049226
-0.44237873 0.45040476 0.047760706
-0.39231315 0.45195538 0.057391513
0.29024014 0.45321137 0.057678796
0.33862412 0.45247135 0.050235149
0.44707379 0.40019807 0.007345859
-0.42975298 0.51565933 0.048043367
-0.39383358 0.51153159 0.067260645
0.29083827 0.52280629 0.057775341
0.32839417 0.52737468 0.047802236
-0.40957916 -0.41544241 0.12881865
-0.35199377 -0.41465056 0.15118976
-0.24982215 -0.40269735 0.15054388
-0.16552122 -0.40080693 0.14980845
0.28509936 -0.40753785 0.17027003
0.32240427 -0.40840793 0.14336856
-0.41190895 -0.34876955 0.13316597
-0.38135165 -0.35200366 0.17356503
-0.24729151 -0.37486941 0.1512899
-0.12721165 -0.39284506 0.14968018
-0.050329868 -0.39523217 0.14987719
0.049054116 -0.392878 0.14983699
0.15046969 -0.3906723 0.15045211
0.24377896 -0.38799036 0.14651132
0.33370277 -0.35035563 0.15024826
-0.41340154 -0.24927866 0.13471174
-0.38461065 -0.24983938 0.17857011
0.27678525 -0.24850409 0.15758145
0.3312031 -0.24970566 0.15224685
-0.41441941 -0.14939891 0.13784596
-0.38352972 -0.15027387 0.17720604
0.27518716 -0.14919747 0.15413213
0.32873139 -0.14885308 0.15206124
-0.41559014 -0.048408542 0.14026241
-0.38223553 -0.049549457 0.17710619
0.27653208 -0.046065915 0.15583937
0.32705879 -0.048788179 0.15152439
-0.41736808 0.051539231 0.14175917
-0.38038754 0.048838407 0.17253856
0.27518731 0.052096367 0.15731519
0.32514662 0.049875159 0.15054674
-0.4184939 0.15064086 0.14415023
-0.37652737 0.14907275 0.16951084
0.27377442 0.15169382 0.1598801
0.32318246 0.14916086 0.14978629
-0.41986537 0.24984653 0.14613611
-0.37269375 0.25107756 0.16310987
0.27391693 0.25334823 0.1588542
0.32129493 0.2493764 0.14936423
-0.42111391 0.35047364 0.14808373
-0.36969513 0.35217011 0.15876384
0.27067471 0.35168448 0.16184768
0.31976783 0.34992859 0.14769071
-0.42320082 0.45002595 0.14808649
-0.37000042 0.45147872 0.15469064
0.27029136 0.4525722 0.16126281
0.31897625 0.45010117 0.14489739
-0.4178609 0.51463789 0.13960177
-0.37773946 0.51699156 0.16121852
0.27450326 0.52802128 0.15942454
0.3162218 0.5224601 0.13782744
-0.33340853 -0.41829219 0.23930261
-0.25151062 -0.40870741 0.25134036
-0.16529125 -0.40084276 0.24959882
0.18159248 -0.40823364 0.28536692
0.25009 -0.40953353 0.24917281
0.30668348 -0.40602842 0.20959385
-0.34443852 -0.3504796 0.24936165
-0.26655006 -0.3562488 0.2663874
-0.12655146 -0.39307249 0.24999659
-0.050646413 -0.3953757 0.25027546
0.049493648 -0.39286464 0.25037882
0.14690064 -0.39013752 0.24750505
0.25798312 -0.35567394 0.25434366
0.30748773 -0.35161516 0.21242794
-0.34554541 -0.2498066 0.25017658
-0.27866039 -0.25310293 0.27988622
0.17021665 -0.25071111 0.28008398
0.26397857 -0.24949244 0.25807586
0.30649188 -0.25064704 0.21014698
-0.34742367 -0.15009962 0.25043154
-0.27336085 -0.15411133 0.276391
0.17006533 -0.14403103 0.27908856
0.26289529 -0.1488758 0.2566959
0.30556735 -0.15195562 0.20824176
-0.34916809 -0.049770802 0.2504116
-0.26429865 -0.049270514 0.2723951
0.17071629 -0.042296577 0.27498132
0.2608014 -0.048534829 0.25458682
0.30453709 -0.051293202 0.20800725
-0.40007311 0.083257645 0.20441788
-0.35036907 0.050840765 0.25008628
-0.26467025 0.052818455 0.27141267
0.16755188 0.05335344 0.27599564
0.25892836 0.049793933 0.2530452
0.30385 0.045724429 0.2071331
-0.40231156 0.15331781 0.2027941
-0.35174373 0.15008648 0.24989039
-0.26571882 0.15225743 0.27056521
0.16678254 0.15315734 0.27592006
0.2571789 0.14927568 0.25141376
0.30314443 0.14718214 0.20549698
-0.40181911 0.25695804 0.20278507
-0.35277122 0.25044402 0.24978806
-0.26411876 0.25092703 0.27324048
0.16643526 0.2533536 0.2745308
0.25498953 0.24998567 0.25051352
0.30308527 0.24119025 0.20492993
-0.40297461 0.36206388 0.20333095
-0.35297605 0.35055298 0.24907482
-0.26501286 0.35244247 0.2741017
0.16509607 0.3513501 0.27355367
0.25178578 0.35015175 0.2498043
0.30243656 0.33653525 0.20532261
-0.40287608 0.45649418 0.20571147
-0.35308421 0.45052955 0.24853954
-0.26569292 0.45188445 0.27498201
0.16429275 0.45136416 0.27260184
0.24940199 0.45090291 0.24848503
0.30174497 0.44612363 0.20237437
-0.40410286 0.5048883 0.20670013
-0.34391943 0.51678127 0.24544162
-0.27466112 0.51739514 0.2806046
0.17058253 0.52473587 0.27702281
0.24144785 0.52496964 0.24354628
-0.30047253 -0.41044295 0.30623546
-0.24006838 -0.41690502 0.32667086
-0.15123197 -0.41314396 0.35014156
-0.052838121 -0.41303548 0.36951482
0.050086532 -0.41169488 0.36452729
0.14433558 -0.41103801 0.33510596
0.21452413 -0.40779197 0.31065622
-0.3041046 -0.34145731 0.30292961
-0.25015938 -0.3499192 0.33497944
-0.15020163 -0.35305253 0.37426007
-0.0522113 -0.36675456 0.36450592
0.050612722 -0.36135161 0.36774376
0.14984648 -0.35153183 0.35024863
0.21658529 -0.34980151 0.31330609
-0.30449566 -0.24301569 0.30382547
-0.24953391 -0.24993794 0.33660904
-0.15124631 -0.25007901 0.37931749
-0.055980418 -0.24981892 0.39152622
0.052267134 -0.24940693 0.38553849
0.15062469 -0.24988848 0.35065866
0.21533731 -0.24935965 0.31236282
-0.30620855 -0.14744638 0.30426195
-0.25022227 -0.14952055 0.33741534
-0.15176012 -0.15016538 0.37883753
-0.05395766 -0.1503752 0.39009365
0.052806761 -0.14917564 0.38447118
0.15058181 -0.1496159 0.34949353
0.21475501 -0.15061207 0.31085199
-0.30693287 -0.045510937 0.30495164
-0.25031319 -0.049582019 0.33831865
-0.15121919 -0.049587719 0.3788783
-0.053235393 -0.048789766 0.38937911
0.052733779 -0.049113616 0.38306653
0.15071225 -0.048729621 0.34775779
0.21322793 -0.050427075 0.31075963
-0.30679467 0.052012619 0.30586255
-0.24985157 0.050432656 0.33948502
-0.15189297 0.0504926 0.37719372
-0.052322574 0.050371248 0.38797104
0.05250065 0.051039871 0.38037792
0.15019886 0.050853483 0.34598383
0.21228738 0.050245486 0.30985391
-0.30636346 0.14987797 0.30673712
-0.25008938 0.15005153 0.33975074
-0.15247017 0.14964773 0.37658089
-0.052080899 0.15082122 0.38491514
0.051687412 0.15071483 0.37847924
0.14874996 0.14915466 0.34483203
0.2114988 0.14843944 0.30865517
-0.30809602 0.25160038 0.30738395
-0.24846263 0.25001344 0.34131667
-0.1521323 0.25032726 0.37444824
-0.051864084 0.2507737 0.38224396
0.051399745 0.25074378 0.37614679
0.14958768 0.24982116 0.34262398
0.21106127 0.24764992 0.30757695
-0.30945495 0.35167786 0.30803874
-0.24780144 0.35059157 0.34144154
-0.15215349 0.35106036 0.37219754
-0.051389422 0.35125053 0.37964967
0.05076535 0.35087314 0.37234318
0.14808846 0.34978852 0.34116763
0.20947547 0.349843 0.30749303
-0.31040955 0.45137087 0.3085956
-0.24809505 0.44998372 0.34084713
-0.15219378 0.45127895 0.3700726
-0.050641306 0.45073274 0.37632653
0.050453339 0.4515318 0.36957717
0.14735979 0.44973359 0.33916849
0.20869489 0.44795504 0.30621478
-0.309311 0.51012099 0.30800352
-0.2436641 0.51813 0.33250499
-0.15124495 0.51967895 0.36298954
-0.05083831 0.5224092 0.37361649
0.050123874 0.52267897 0.36158267
0.14358434 0.52314848 0.33086741
0.20858629 0.51624233 0.30438289
-0.10486132 -0.40556127 0.4011727
-0.040729985 -0.40776327 0.40355003
0.019459713 -0.40568933 0.40228638
-0.10596509 -0.35640553 0.40090609
-0.045244787 -0.35020912 0.40375075
0.019150311 -0.34950599 0.4028008
-0.10813186 -0.24161139 0.40154535
-0.045832101 -0.25021207 0.40389866
0.018286293 -0.25188261 0.40267733
-0.10908478 -0.15144636 0.40171465
-0.046024017 -0.14982799 0.40394959
0.016595811 -0.14902656 0.40274918
-0.10640004 -0.049472049 0.40193591
-0.047114484 -0.048997838 0.40390736
0.014699665 -0.049206208 0.40244922
-0.10592816 0.052574176 0.40239114
-0.048109844 0.05000139 0.40398335
0.013504161 0.047620427 0.40240061
-0.11200893 0.15551357 0.40223393
-0.048480596 0.15018648 0.40387666
0.014981263 0.14591226 0.40236858
-0.11183181 0.24938609 0.40213251
-0.049492586 0.25010628 0.40391681
0.012100167 0.24955997 0.40251723
-0.11154015 0.34970561 0.40256372
-0.050111216 0.35022473 0.40397012
0.0088470606 0.34478781 0.40274581
-0.11324734 0.45532811 0.40203446
-0.050045133 0.44941533 0.40390322
0.012242731 0.4463706 0.4021416
-0.11577443 0.50672692 0.40268016
-0.053065524 0.51155263 0.40347302
0.0064373077 0.51219958 0.40217406
