# .PCD v0.7 - Point Cloud Data file format
VERSION 0.7
FIELDS x y z
SIZE 4 4 4
TYPE F F F
COUNT 1 1 1
WIDTH 520
HEIGHT 1
VIEWPOINT 0 0 0 1 0 0 0
POINTS 520
DATA ascii
-0.21134748 -0.32413858 -0.40556154
-0.14640971 -0.33100617 -0.42086133
-0.047979824 -0.33329338 -0.43047455
0.047425047 -0.3325021 -0.42715836
0.12991534 -0.32882619 -0.41275662
-0.21148172 -0.23502187 -0.40581921
-0.14360778 -0.24944203 -0.41671735
-0.048971362 -0.25036564 -0.43101859
0.050558496 -0.24966371 -0.42640185
0.12785074 -0.25322554 -0.4112843
-0.21305273 -0.15583326 -0.40630236
-0.14924693 -0.15128276 -0.42367041
-0.049004365 -0.14997645 -0.43707404
0.050488997 -0.15006138 -0.43058738
0.13062945 -0.15850264 -0.41285363
-0.21413262 -0.018507037 -0.40666586
-0.1469427 -0.046806432 -0.41958582
-0.049217172 -0.048481185 -0.43291873
0.049980242 -0.048570074 -0.4273738
0.12820153 -0.038656279 -0.41183978
-0.21460527 0.035357855 -0.40707585
-0.14817981 0.048714802 -0.42291304
-0.048994448 0.050167464 -0.43478647
0.049755476 0.049524844 -0.42939296
0.13022944 0.041611426 -0.41262335
-0.21541911 0.16845649 -0.40738618
-0.14685912 0.1521721 -0.42281204
-0.048714958 0.15107614 -0.43390852
0.048805468 0.15085311 -0.42902321
0.12945344 0.15910651 -0.41302174
-0.21540366 0.23653345 -0.40792176
-0.14747711 0.24919756 -0.42459604
-0.048431192 0.25023583 -0.435265
0.048703983 0.250276 -0.43128571
0.13433078 0.24296111 -0.41480666
-0.21721452 0.36774382 -0.40792114
-0.14731859 0.3521966 -0.42393059
-0.048453815 0.35198325 -0.43336141
0.049155954 0.35157546 -0.42983279
0.13436493 0.3574487 -0.4152492
-0.21770325 0.4303689 -0.40782937
-0.14642681 0.43410265 -0.42450777
-0.049449161 0.43349737 -0.43528524
0.049436562 0.43401968 -0.43086746
0.13731414 0.43214336 -0.4155474
-0.32464796 -0.32854041 -0.32305649
-0.25039452 -0.33077204 -0.35323551
-0.1506649 -0.32395199 -0.35250723
-0.049912684 -0.31873077 -0.35040087
0.051368494 -0.32066438 -0.35212454
0.15417013 -0.32873285 -0.35664761
0.24299984 -0.33106869 -0.33647701
0.303532 -0.32147524 -0.30413038
-0.31915516 -0.24452232 -0.31861964
-0.25143349 -0.2514753 -0.36289677
-0.16510393 -0.26064265 -0.37055993
-0.049449943 -0.27182999 -0.35517693
0.052089386 -0.26809686 -0.35699743
0.16367115 -0.25055632 -0.3765527
0.2464274 -0.2503432 -0.3386296
0.30441293 -0.25041044 -0.30338222
-0.32811111 -0.15006563 -0.32611147
-0.25765184 -0.14814211 -0.37110618
-0.16049929 -0.14364016 -0.38591966
-0.053993791 -0.1553355 -0.39573497
0.060269915 -0.14809524 -0.39092904
0.16768439 -0.14295402 -0.38212502
0.24516079 -0.15266016 -0.34012714
0.30463788 -0.17393991 -0.30416271
-0.32481962 -0.041488152 -0.32272083
-0.254884 -0.050689545 -0.36529592
-0.1701443 -0.055461418 -0.38802576
-0.059191778 -0.050839178 -0.39581457
0.063935906 -0.048373394 -0.39206809
0.1646121 -0.054446705 -0.38113832
0.24449848 -0.046640608 -0.33842188
0.30412081 -0.017968247 -0.30485871
-0.32804972 0.047252804 -0.32530478
-0.25708935 0.052684642 -0.36752534
-0.16084911 0.058774475 -0.38646275
-0.060529474 0.053220116 -0.39655384
0.065155454 0.05348498 -0.39252862
0.16596694 0.055925567 -0.38036901
0.24437609 0.048236407 -0.33918911
0.30443802 0.017163228 -0.30537263
-0.32835868 0.15550335 -0.32491928
-0.25656104 0.14840142 -0.36675993
-0.16272874 0.14531924 -0.38686183
-0.059838671 0.15123755 -0.39664531
0.063324176 0.1503149 -0.39274347
0.1650425 0.14532912 -0.37950787
0.24401163 0.15280864 -0.33897266
0.30505148 0.18167058 -0.30608186
-0.32778117 0.24676199 -0.32601157
-0.25654468 0.25208515 -0.36536703
-0.16017935 0.25457078 -0.38599971
-0.059601653 0.25256872 -0.39757332
0.063965619 0.24992962 -0.39319545
0.16352639 0.25633267 -0.37851578
0.24636869 0.24854438 -0.34143561
0.30544177 0.23232527 -0.3057695
-0.32772955 0.35579428 -0.32615805
-0.25622025 0.34875774 -0.36381692
-0.16044395 0.34992319 -0.38671339
-0.062764511 0.34343261 -0.39807975
0.066446885 0.35142422 -0.39343244
0.16304904 0.34675157 -0.37758896
0.24570391 0.35278443 -0.34071964
0.30731115 0.37160879 -0.30483699
-0.32757282 0.43295962 -0.32640848
-0.25813156 0.43463704 -0.36520785
-0.16817291 0.43193069 -0.38951489
-0.095693789 0.41019663 -0.39905897
0.080178156 0.42713019 -0.39531559
0.1640003 0.43455648 -0.38049203
0.24595094 0.43345585 -0.34327871
0.30679125 0.4284628 -0.30582958
-0.411248 -0.32764208 -0.21965161
-0.35500786 -0.32980117 -0.25266618
-0.25044987 -0.31735396 -0.24922906
-0.15055506 -0.31700397 -0.24981472
-0.050066542 -0.31700385 -0.24987586
0.051106721 -0.31699982 -0.24995187
0.15061605 -0.31700465 -0.24945684
0.25338453 -0.32433277 -0.25264433
0.33129543 -0.33141044 -0.24323925
-0.40781143 -0.23584501 -0.21311009
-0.36486197 -0.2502065 -0.25686046
-0.25093678 -0.2764034 -0.25139776
-0.15076521 -0.27713153 -0.24919792
-0.048569847 -0.2771292 -0.25195357
0.050826795 -0.27713087 -0.25137067
0.15080133 -0.27714336 -0.24913485
0.27055389 -0.25623798 -0.26811603
0.3351132 -0.25021511 -0.24483363
-0.41303152 -0.14862919 -0.22179383
-0.37267625 -0.147007 -0.26734012
-0.29231775 -0.14989184 -0.29345295
0.28470665 -0.1374535 -0.2824361
0.33468002 -0.15258381 -0.24365251
-0.41170993 -0.033664625 -0.2193877
-0.36785439 -0.051344339 -0.26129812
-0.2937496 -0.041287635 -0.29325372
0.28523004 -0.059670847 -0.28192046
0.33461627 -0.046620548 -0.24238594
-0.41371614 0.045143194 -0.22221552
-0.36949465 0.05331349 -0.26445279
-0.29542625 0.06986367 -0.29647291
0.28450558 0.059669469 -0.28071287
0.33445886 0.048919871 -0.24250957
-0.41321588 0.15855835 -0.22364466
-0.36839688 0.14809357 -0.26265657
-0.29581407 0.14854209 -0.29551262
0.2833474 0.14486192 -0.28041399
0.33487901 0.15282816 -0.24165988
-0.41377744 0.24322557 -0.22313896
-0.36658463 0.25317022 -0.26267645
-0.29467821 0.2730436 -0.2973887
0.27945846 0.25823659 -0.27671188
0.3368296 0.24936827 -0.24501672
-0.41506895 0.35950226 -0.2224306
-0.36579487 0.34894466 -0.2618618
-0.29776952 0.34145483 -0.29669106
0.27945498 0.34651181 -0.27758399
0.33623242 0.35236213 -0.24474475
-0.41537881 0.4315007 -0.2239095
-0.36795339 0.43441617 -0.26223674
0.28230312 0.43342265 -0.27990186
0.33669844 0.4337672 -0.24577603
-0.43144634 -0.33143765 -0.1465137
-0.35140723 -0.31977579 -0.15111178
-0.24995528 -0.31700152 -0.15033902
-0.15106034 -0.31699422 -0.15029241
-0.049967073 -0.31699488 -0.15038753
0.050894342 -0.31699258 -0.15033127
0.15081017 -0.31699622 -0.15034406
0.24950123 -0.31701148 -0.15045767
0.35408297 -0.33021817 -0.15127185
0.40432441 -0.30544853 -0.1150396
-0.42852405 -0.24772389 -0.14950058
-0.35274187 -0.26922894 -0.15313086
-0.25082675 -0.27715209 -0.14981869
-0.15032093 -0.2771363 -0.15077661
-0.048936736 -0.27712426 -0.1490339
0.05096592 -0.2771354 -0.14978886
0.15168074 -0.27714625 -0.15031141
0.2509017 -0.27712086 -0.14928864
0.37292933 -0.24942447 -0.15869157
0.41081282 -0.26411092 -0.11545789
-0.44248468 -0.14915019 -0.14970976
-0.38849235 -0.15088263 -0.17502843
0.36929518 -0.14961807 -0.15513811
-0.43479919 -0.048820931 -0.1489137
-0.38947812 -0.050603356 -0.17562737
0.36882666 -0.049765445 -0.15478453
-0.44004792 0.050903741 -0.14939362
-0.38989931 0.049544111 -0.17601222
0.36781886 0.052009542 -0.1544282
-0.43901959 0.15151353 -0.14857754
-0.38929003 0.15393199 -0.17834887
0.36590695 0.1508372 -0.15383096
-0.43846536 0.25073659 -0.1480912
-0.39047405 0.25149786 -0.17921297
0.36463842 0.25052133 -0.15209688
-0.43773174 0.3516683 -0.14653899
-0.39183295 0.35193345 -0.17984097
0.3649238 0.35073331 -0.15480982
0.41362953 0.38758337 -0.11608056
-0.43792832 0.43408474 -0.14848268
-0.39305288 0.42841229 -0.18629122
0.36781046 0.43536544 -0.1530709
0.40963635 0.41614071 -0.11813299
-0.44552284 -0.33026746 -0.049364749
-0.34956381 -0.31700951 -0.050280526
-0.24994649 -0.31699434 -0.050533365
-0.15087219 -0.31699359 -0.050729942
-0.050393391 -0.31699258 -0.050709821
0.051313281 -0.31698847 -0.050384372
0.15086056 -0.31699717 -0.050649554
0.24937685 -0.31700155 -0.050513115
0.35160339 -0.32937247 -0.050212234
0.40427044 -0.30358893 -0.059582818
-0.45032471 -0.24866284 -0.049858265
-0.34697229 -0.27712026 -0.050129801
-0.25082144 -0.2771351 -0.049292296
-0.1497972 -0.27713591 -0.049882334
-0.048720706 -0.27711868 -0.049634084
0.049646903 -0.27713308 -0.049894188
0.14957994 -0.27713209 -0.048621845
0.25150084 -0.27711308 -0.050961204
0.3578234 -0.23292156 -0.050069708
0.44825724 -0.26055413 -0.049118999
0.55033052 -0.24920566 -0.036449417
0.62412548 -0.22475623 -0.032318849
-0.46390602 -0.15046515 -0.050767396
0.3527137 -0.14777115 -0.051502403
0.58825803 -0.18672562 -0.02422894
0.6468116 -0.15013188 -0.036944043
-0.45695445 -0.049622752 -0.050046567
0.35199037 -0.049158718 -0.052236889
0.65137613 -0.049581055 -0.035964597
-0.46198764 0.051096033 -0.050698224
0.35120299 0.050954018 -0.051974457
0.65245992 0.05056154 -0.036303002
-0.45961395 0.15097013 -0.050802082
0.34929013 0.15051626 -0.05110652
0.65324587 0.15063305 -0.036000047
-0.45855248 0.25021595 -0.050029427
0.34769636 0.24973896 -0.050237454
0.65340507 0.24950331 -0.036594238
-0.457748 0.35159072 -0.049918626
0.34864524 0.34841472 -0.050456241
0.45161769 0.37770414 -0.051977757
0.555345 0.37340674 -0.042101666
0.63577199 0.34636503 -0.034785591
-0.45930457 0.43351281 -0.0503699
0.35707736 0.43883479 -0.049517289
0.44634315 0.42093492 -0.046153586
0.54700327 0.41426986 -0.030287595
0.60464901 0.40197334 -0.02201934
-0.44560081 -0.33059704 0.048925016
-0.34978342 -0.31701425 0.049580608
-0.25000122 -0.31699765 0.049838405
-0.15104915 -0.31699768 0.050155155
-0.050251324 -0.31699711 0.049806416
0.051400673 -0.31699279 0.049988948
0.15080601 -0.31700173 0.050257757
0.24956271 -0.3170076 0.05005658
0.35183257 -0.32920617 0.04997924
0.40509456 -0.30309156 0.059249219
-0.45020112 -0.24907689 0.049456723
-0.34727609 -0.27712974 0.048245318
-0.25117013 -0.27713981 0.047351696
-0.15034878 -0.27714801 0.04745606
-0.047736153 -0.27713141 0.047234032
0.049772087 -0.27713859 0.047804095
0.15039872 -0.27714276 0.047529127
0.25157443 -0.27712113 0.048517555
0.35780001 -0.23443021 0.049221542
0.44909078 -0.25983864 0.050075956
0.54962343 -0.24809909 0.039505254
0.62367427 -0.22516447 0.032368615
-0.46408275 -0.149876 0.04898271
0.3514089 -0.14807928 0.051326819
0.59067255 -0.18554002 0.0363678
0.64434922 -0.14873365 0.040091246
-0.45706531 -0.049596906 0.049917977
0.35120529 -0.048996769 0.050360803
0.64793175 -0.048800882 0.039407086
-0.46191615 0.050735038 0.049837403
0.35056433 0.051069401 0.050918061
0.64859462 0.050954256 0.039165653
-0.45939377 0.1512157 0.049968485
0.34857896 0.15106638 0.050540324
0.64922041 0.15035273 0.039606716
-0.45864934 0.25047234 0.049749814
0.34656689 0.24986148 0.050473772
0.64952374 0.25036046 0.039518658
-0.4575009 0.35199812 0.050214522
0.34819379 0.35005343 0.051211089
0.45195797 0.37731096 0.054255586
0.55604392 0.37089208 0.046186425
0.63499939 0.34564433 0.037004463
-0.45941621 0.43346065 0.050052207
0.35726902 0.43905103 0.048737649
0.44662762 0.42112219 0.046837341
0.54710567 0.41443843 0.031456299
0.60270959 0.40209725 0.023184976
-0.43119606 -0.33151886 0.14657776
-0.35132229 -0.3196795 0.15096225
-0.25006124 -0.31700146 0.15035155
-0.15104188 -0.31699434 0.15025091
-0.049980428 -0.31699479 0.15043053
0.050909858 -0.31699222 0.1502986
0.1507743 -0.31699565 0.15033954
0.24947797 -0.31701249 0.15060408
0.35394147 -0.3299998 0.15075181
0.40394276 -0.30576685 0.11538057
-0.42857197 -0.24733837 0.15012981
-0.35332248 -0.26830795 0.15304881
-0.25099254 -0.27715188 0.14993408
-0.15025118 -0.27713796 0.15063944
-0.04898059 -0.27712396 0.14881971
0.050654013 -0.27713034 0.14982364
0.15132102 -0.27714598 0.15059428
0.25085625 -0.27712142 0.14954245
0.37189454 -0.25041118 0.15708023
0.41132641 -0.26276186 0.11469592
-0.44207594 -0.14888054 0.15012464
-0.38967982 -0.14582928 0.17579465
0.36660156 -0.14978795 0.15401749
-0.43470475 -0.048433699 0.14863832
-0.38873246 -0.045723807 0.17813845
0.36622846 -0.049375772 0.15332563
-0.44015241 0.05096912 0.14917615
-0.38945773 0.053663395 0.17657243
0.3653177 0.051862717 0.15297027
-0.43893141 0.15139082 0.14822313
-0.39070666 0.15140039 0.17844971
0.3641437 0.15073402 0.15257396
-0.4382332 0.25030783 0.14822479
-0.39038944 0.25296184 0.17927203
0.36278749 0.25007522 0.15218782
-0.43725833 0.35139722 0.14769901
-0.39063603 0.35229462 0.18053998
0.36361107 0.35139504 0.15376791
0.41377273 0.38621446 0.11620184
-0.43734324 0.43383485 0.14929384
-0.39278397 0.43053305 0.18781973
0.36744517 0.43509173 0.15208426
0.41032678 0.41603768 0.11644908
-0.41098794 -0.32866019 0.21922006
-0.35498592 -0.32963949 0.25282606
-0.2504552 -0.31734422 0.24925956
-0.1505551 -0.31700402 0.24976552
-0.050089456 -0.31700388 0.24992903
0.051118311 -0.31699961 0.24992947
0.15052477 -0.31700495 0.24942231
0.25283244 -0.32408017 0.25267279
0.33080822 -0.33169022 0.24263106
-0.40664741 -0.23759113 0.21331321
-0.3653982 -0.25037608 0.25626838
-0.25146699 -0.2756733 0.25206986
-0.1504793 -0.2771332 0.24891119
-0.048921552 -0.27712998 0.25189495
0.050439347 -0.27712932 0.25168121
0.15102725 -0.27714407 0.24920219
0.27004692 -0.25554848 0.26824433
0.33505577 -0.25005201 0.24442686
-0.41243288 -0.14950593 0.22266565
-0.37249091 -0.14718232 0.26783189
-0.29808041 -0.12803613 0.28921708
0.28318143 -0.13938439 0.28244805
0.33470044 -0.15147226 0.24273236
-0.41081551 -0.035705779 0.21911706
-0.36718851 -0.051246528 0.26241079
-0.29351655 -0.058349557 0.29427671
0.28381932 -0.059431873 0.28171685
0.33402675 -0.047100089 0.24262483
-0.41296935 0.045490876 0.22225291
-0.36917272 0.053457763 0.26525232
-0.29458645 0.049105521 0.29593357
0.28336069 0.058675282 0.28151026
0.33413634 0.04935107 0.24241692
-0.41374761 0.15728617 0.22216739
-0.36817455 0.14840052 0.26321876
-0.29544294 0.1558364 0.2950896
0.28214237 0.14513037 0.28055128
0.33425498 0.15226649 0.24140735
-0.41357306 0.24354972 0.22338568
-0.36692068 0.25330573 0.26238951
-0.29676169 0.25757369 0.29669482
0.2798337 0.25710833 0.27671671
0.33648559 0.24937728 0.24458657
-0.41419712 0.35906535 0.22348791
-0.36569741 0.34900081 0.26132768
-0.29728541 0.34157759 0.29727
0.2802377 0.34594727 0.27796793
0.33596975 0.3526836 0.24433032
-0.41476202 0.43142512 0.22477368
-0.36835369 0.43454239 0.26195684
0.28177142 0.43376288 0.28015727
0.33624661 0.43374446 0.24566866
-0.32428122 -0.32869691 0.32288244
-0.25015905 -0.33067751 0.35349163
-0.15074819 -0.32387751 0.35234049
-0.049663655 -0.31872985 0.35039309
0.051433872 -0.32067049 0.35197908
0.15477841 -0.32856944 0.35650095
0.24337916 -0.33113438 0.33602914
0.30262914 -0.32486376 0.3037315
-0.31892064 -0.24498005 0.31837118
-0.25189182 -0.25118315 0.36253905
-0.16555023 -0.26023969 0.37063986
-0.050055757 -0.27126375 0.35483891
0.052367911 -0.26827857 0.35749215
0.16319801 -0.25033402 0.37670708
0.24612246 -0.25024119 0.33859402
0.30344221 -0.25100321 0.30492222
-0.3287451 -0.15030167 0.32535538
-0.258403 -0.14797594 0.37057117
-0.16168429 -0.14046872 0.3852818
-0.059377611 -0.14759794 0.39608994
0.061572816 -0.14780112 0.39160872
0.16739479 -0.14234377 0.38125855
0.24504207 -0.15287071 0.34014487
0.30471808 -0.17432143 0.30384523
-0.32333261 -0.041447192 0.32331216
-0.25370061 -0.050946318 0.36592978
-0.16794944 -0.056338232 0.38824883
-0.056240559 -0.053921159 0.3959195
0.060422618 -0.04650452 0.39135274
0.16485034 -0.055039436 0.38092574
0.24437658 -0.046161372 0.3384141
0.3038263 -0.016171858 0.30499351
-0.32703909 0.047309786 0.3255806
-0.25628909 0.052983012 0.3682496
-0.16226612 0.059104133 0.38679928
-0.057664447 0.047194995 0.39624226
0.061602708 0.05034912 0.39168695
0.16534084 0.056497321 0.38006791
0.24383555 0.047972601 0.33931437
0.3029075 0.019236911 0.30538851
-0.32804063 0.15543108 0.32511455
-0.25641552 0.14836697 0.36642796
-0.16274339 0.14562166 0.38606447
-0.058395207 0.14678882 0.39697328
0.063890092 0.15019023 0.39258623
0.16447766 0.14500551 0.37947619
0.24376966 0.15307061 0.33905867
0.30677909 0.18472221 0.30377483
-0.32853279 0.24601284 0.32550097
-0.25718561 0.25261974 0.36483809
-0.15914875 0.25351501 0.38648027
-0.057017732 0.25291425 0.39762154
0.064999953 0.25256115 0.39262438
0.16440208 0.2560797 0.37832966
0.24624297 0.24848245 0.34145725
0.3064425 0.23355864 0.30467105
-0.32854345 0.35563573 0.32565594
-0.2566883 0.34879404 0.36333412
-0.1609446 0.34922603 0.38648933
-0.069878593 0.3408379 0.39777222
0.063618504 0.35032377 0.39356607
0.16242506 0.34699166 0.37794647
0.24518843 0.35236067 0.34072477
0.30535764 0.37131613 0.30708173
-0.32752514 0.43327287 0.32659903
-0.25811195 0.43452802 0.36542162
-0.16924821 0.43103093 0.38933885
-0.09627004 0.41417721 0.39922068
0.078420609 0.42405167 0.39500511
0.16402896 0.43452695 0.38032544
0.24618806 0.43348309 0.342574
0.30578619 0.42838377 0.30657271
-0.21079572 -0.3253926 0.40576413
-0.14686525 -0.33120066 0.42029843
-0.048866056 -0.33315301 0.43045399
0.047110513 -0.33250344 0.42730591
0.12962781 -0.32884333 0.41294941
-0.21133797 -0.23307128 0.40543926
-0.143971 -0.24932568 0.41675717
-0.049104687 -0.25035715 0.43091339
0.050220642 -0.24953671 0.4261685
0.12809227 -0.2531113 0.41137552
-0.2129152 -0.15632017 0.40636349
-0.14957573 -0.15097594 0.42340288
-0.048991222 -0.15072609 0.43720487
0.050635908 -0.15032366 0.43069524
0.13071617 -0.1585269 0.41262105
-0.21329603 -0.020774841 0.40725309
-0.14573886 -0.04647506 0.41967326
-0.04846254 -0.048668969 0.43295249
0.050413977 -0.048866916 0.42748654
0.1284322 -0.037609562 0.41173747
-0.2139791 0.034500767 0.40732899
-0.14725454 0.047965009 0.42298296
-0.048340198 0.050153732 0.43502411
0.049845818 0.05054779 0.42931321
0.12972021 0.041250244 0.41257083
-0.2152686 0.16802645 0.40709087
-0.14726415 0.1521406 0.42267808
-0.048541274 0.15101266 0.43399125
0.049568128 0.15139577 0.42880428
0.13001056 0.15981369 0.41292793
-0.21654588 0.23615782 0.407112
-0.14810158 0.24923526 0.42448738
-0.048919957 0.25021881 0.43521982
0.048517186 0.24964334 0.43147489
0.13399699 0.24345405 0.41478947
-0.21779877 0.36782986 0.40785596
-0.14671701 0.35191265 0.42429173
-0.048603926 0.35221034 0.43316081
0.048658993 0.35172847 0.4299829
0.13473161 0.35748649 0.41512492
-0.21787335 0.42926949 0.4082256
-0.14611165 0.4339256 0.42433485
-0.04913694 0.43368077 0.43528154
0.049410231 0.43404102 0.43057743
0.13656369 0.43180031 0.41556883
