# .PCD v0.7 - Point Cloud Data file format
VERSION 0.7
FIELDS x y z
SIZE 4 4 4
TYPE F F F
COUNT 1 1 1
WIDTH 643
HEIGHT 1
VIEWPOINT 0 0 0 1 0 0 0
POINTS 643
DATA ascii
-0.12031588 -0.41173652 -0.40336865
-0.051539537 -0.41264898 -0.40608144
0.020141724 -0.41165823 -0.4035598
-0.12140339 -0.35018173 -0.40401271
-0.051377539 -0.34956318 -0.40691093
0.018288622 -0.34896931 -0.40419468
-0.12056095 -0.25100279 -0.40431321
-0.050744697 -0.24867989 -0.40694565
0.019091656 -0.25049382 -0.4042263
-0.12172969 -0.15075496 -0.40407878
-0.051694933 -0.15060805 -0.40693229
0.018828781 -0.150626 -0.40425077
-0.12299121 -0.051769931 -0.40396154
-0.051868644 -0.051240973 -0.40686077
0.018673386 -0.050355442 -0.40428632
-0.12288247 0.049523134 -0.40408978
-0.052408554 0.050051764 -0.40679184
0.018879486 0.048686642 -0.40435106
-0.12185672 0.15104483 -0.40420619
-0.051675528 0.1506042 -0.40678772
0.01841981 0.14958075 -0.40443292
-0.12072685 0.25106248 -0.40435773
-0.050977539 0.24913977 -0.40682694
0.018840328 0.25028327 -0.40446028
-0.12115709 0.3502121 -0.40392813
-0.051314011 0.3493368 -0.4066892
0.01788668 0.34978673 -0.40460289
-0.12020483 0.44912142 -0.40402752
-0.051015411 0.44934368 -0.40661219
0.018936222 0.45099097 -0.40440425
-0.11600623 0.50608146 -0.40354359
-0.051729754 0.50902581 -0.40531933
0.013876253 0.50670207 -0.40336588
-0.31077015 -0.41422498 -0.31050956
-0.24433987 -0.42010057 -0.3352026
-0.14968655 -0.42227224 -0.35198361
-0.050424047 -0.42409819 -0.35161611
0.048508093 -0.42250401 -0.35218918
0.14382157 -0.42000592 -0.33538145
0.21257241 -0.41357112 -0.3104763
-0.31250608 -0.35015932 -0.31118804
-0.25114822 -0.35002589 -0.35085553
-0.15920684 -0.34928983 -0.38545603
-0.05264622 -0.34991246 -0.38062346
0.059551261 -0.35041112 -0.38482657
0.15141034 -0.35055575 -0.35115442
0.21407934 -0.3512716 -0.31138512
-0.31304863 -0.24936104 -0.31100017
-0.25095755 -0.24980493 -0.35058281
-0.1587029 -0.2499142 -0.3854937
-0.053110581 -0.24797243 -0.38598496
0.059177488 -0.25035632 -0.38557467
0.15134391 -0.25013757 -0.35113543
0.21373713 -0.25070277 -0.31113261
-0.31304169 -0.15019704 -0.31081298
-0.25109485 -0.15008613 -0.35071069
-0.15938057 -0.15029834 -0.38433179
-0.04994332 -0.14900921 -0.38296413
0.059300553 -0.14962652 -0.38500649
0.15155721 -0.15054075 -0.35091263
0.2143276 -0.15058209 -0.31105363
-0.3133879 -0.050775703 -0.31060186
-0.25121608 -0.050289821 -0.35028973
-0.15831643 -0.050613057 -0.38282102
-0.05221881 -0.047795791 -0.37986121
0.059361059 -0.050289348 -0.38358048
0.15145853 -0.050578624 -0.35066155
0.21386421 -0.050423682 -0.31123865
-0.31390575 0.049866293 -0.31009325
-0.25105271 0.04983148 -0.34991392
-0.15800232 0.050648343 -0.38114893
-0.051021013 0.04923803 -0.37480342
0.058476392 0.050464068 -0.38073957
0.15121856 0.049371522 -0.35013306
0.21384476 0.049767405 -0.31136307
-0.3126139 0.14969695 -0.31120685
-0.25046295 0.15045784 -0.34976375
-0.15825903 0.15052024 -0.37803972
-0.049586523 0.15143354 -0.37264559
0.057879157 0.15079802 -0.37773803
0.15047969 0.15066397 -0.35032463
0.21430515 0.15111199 -0.31101802
-0.31302679 0.24955255 -0.31086892
-0.25006267 0.24973996 -0.34958014
-0.15709162 0.25078824 -0.37495631
-0.05208141 0.25088561 -0.36563134
0.056688424 0.25100121 -0.37566009
0.14988656 0.25021207 -0.34956431
0.21369125 0.25015709 -0.31107947
-0.31248859 0.34997207 -0.31103754
-0.2494985 0.3499009 -0.34847134
-0.15739901 0.35143799 -0.37113872
-0.051177002 0.35193545 -0.36224926
0.056531899 0.35157475 -0.37234181
0.14950952 0.35054052 -0.34886944
0.21366785 0.35092372 -0.31159657
-0.31286061 0.45043096 -0.31062683
-0.24939746 0.45097539 -0.34844786
-0.15712526 0.45144618 -0.36696336
-0.052745022 0.45087814 -0.35813275
0.054949693 0.45079052 -0.36745057
0.14855552 0.4502641 -0.34839305
0.21389067 0.45119298 -0.31137192
-0.31121761 0.51013297 -0.30855832
-0.24281853 0.51937342 -0.33245209
-0.15140311 0.51891285 -0.3604925
-0.050350439 0.5207271 -0.36950988
0.051339719 0.51907426 -0.36112979
0.14357625 0.51876688 -0.33352658
0.2116541 0.51127154 -0.30909315
-0.40368527 -0.40920585 -0.20530775
-0.34491715 -0.42059237 -0.24353348
-0.24947965 -0.42472607 -0.24998605
-0.15104821 -0.42472014 -0.25039363
-0.05117536 -0.42472348 -0.2500014
0.050241902 -0.42472616 -0.2498934
0.15105329 -0.42472118 -0.25039318
0.24432804 -0.42072174 -0.24377312
0.30463731 -0.41321561 -0.20687163
-0.40370989 -0.34837201 -0.20669298
-0.36227965 -0.35054925 -0.25487205
-0.24643546 -0.35184443 -0.24872294
-0.14960851 -0.36140412 -0.25034529
-0.050993491 -0.36141866 -0.25060886
0.047708072 -0.36137909 -0.24957553
0.14794697 -0.35380596 -0.24811582
0.2636975 -0.35035148 -0.254531
0.30476931 -0.35233656 -0.20844939
-0.40398732 -0.24833356 -0.20675242
-0.36233878 -0.25075823 -0.25413707
-0.2608552 -0.24648738 -0.26719943
0.15961558 -0.24731846 -0.26982078
0.2630119 -0.25076142 -0.25532299
0.30551118 -0.25064954 -0.20715135
-0.40391597 -0.14797685 -0.20702587
-0.36167771 -0.14998138 -0.25476587
-0.25854027 -0.15028626 -0.26872209
-0.19284183 -0.19107801 -0.29987165
0.098939858 -0.16497117 -0.29864755
0.16082677 -0.14893949 -0.27001634
0.26277053 -0.14960335 -0.25557896
0.30513489 -0.151972 -0.20728154
-0.40349633 -0.052433543 -0.20772222
-0.3621659 -0.050711293 -0.25325295
-0.25887328 -0.048475455 -0.2684401
0.1640759 -0.046748675 -0.26840001
0.26243091 -0.050230034 -0.25452191
0.30506864 -0.052307408 -0.20755552
-0.40313312 0.051190849 -0.20790766
-0.36165121 0.049601253 -0.25321925
-0.26102 0.054720994 -0.26714879
-0.19754136 0.058613241 -0.29828534
0.098481894 0.054926634 -0.29953885
0.16134867 0.052987706 -0.27025557
0.26243642 0.049267445 -0.25395751
0.30504552 0.051775608 -0.20832011
-0.40374658 0.14758734 -0.2073079
-0.35965872 0.15008324 -0.25389531
-0.25928837 0.15275843 -0.26822212
0.16102056 0.15336032 -0.26911542
0.26111177 0.14954878 -0.25417241
0.30491227 0.15211329 -0.20757857
-0.40370283 0.2490277 -0.20719704
-0.3595956 0.25052208 -0.25220466
-0.259693 0.25145796 -0.26858404
-0.1978267 0.26465353 -0.29883045
0.16018678 0.25199276 -0.26976261
0.26004684 0.2511369 -0.25321168
0.30545509 0.25008327 -0.20712322
-0.40361995 0.34978235 -0.20677891
-0.35760054 0.35057855 -0.251506
-0.25824943 0.35271752 -0.269146
-0.19805139 0.38271806 -0.2992669
0.099457651 0.34803104 -0.2980507
0.16021937 0.35385272 -0.26942718
0.25858986 0.35072514 -0.25183249
0.30464244 0.35081601 -0.20820481
-0.40385005 0.44828278 -0.20554534
-0.35683677 0.45062685 -0.25033733
-0.25934589 0.45171177 -0.26883414
-0.1968763 0.46815348 -0.29898793
0.098466963 0.42426968 -0.29911274
0.15989046 0.45200372 -0.26896131
0.25770479 0.45056012 -0.2505177
0.30393529 0.45397523 -0.20891236
-0.40322131 0.50573581 -0.20609537
-0.34325245 0.51908112 -0.24426681
-0.2702806 0.51802909 -0.27547449
0.16969483 0.51807749 -0.27790275
0.24322531 0.51929927 -0.24468952
0.30318347 0.50766981 -0.20816165
-0.42028478 -0.41759896 -0.14158775
-0.35020012 -0.42467007 -0.15021299
-0.24968858 -0.42471454 -0.15013534
-0.15071577 -0.42472041 -0.15045425
-0.050128236 -0.42471173 -0.15024815
0.049159929 -0.42471468 -0.15016159
0.15072648 -0.42472073 -0.15045388
0.24959013 -0.42467743 -0.15003566
0.32102752 -0.41798061 -0.14179546
-0.42640153 -0.3507503 -0.14947343
-0.35124546 -0.35025761 -0.15672062
-0.24657908 -0.36142012 -0.14792517
-0.15018156 -0.36141947 -0.14906409
-0.052052751 -0.36143184 -0.14817193
0.04721465 -0.36141846 -0.14878032
0.15076934 -0.36137491 -0.14900409
0.24410604 -0.35291424 -0.14650702
0.32704642 -0.35137802 -0.15188234
-0.42584515 -0.25015453 -0.15012968
-0.36721087 -0.24977486 -0.16118182
0.26163092 -0.24494773 -0.15567259
0.32734552 -0.25108057 -0.15191811
-0.42624834 -0.14984888 -0.14903565
-0.36386073 -0.1511005 -0.16123445
0.26212248 -0.14768095 -0.15583329
0.32766676 -0.15006578 -0.1512579
-0.42581114 -0.050431851 -0.15003724
-0.36183694 -0.045317996 -0.15694644
0.26309973 -0.04698316 -0.15458016
0.32808119 -0.051091727 -0.14990926
-0.42585465 0.049451001 -0.14991766
-0.36059356 0.051244713 -0.1555057
0.26039198 0.050555594 -0.15524499
0.32809126 0.0491856 -0.14991666
-0.42618456 0.14995885 -0.14899163
-0.35862732 0.15278725 -0.15705842
0.25859016 0.1538257 -0.15309055
0.32745031 0.14987168 -0.15140472
-0.42578459 0.24996847 -0.15004398
-0.35945833 0.25250646 -0.15353972
0.25885034 0.25346017 -0.15221354
0.32740179 0.25065631 -0.15166818
-0.42620239 0.35088459 -0.14952494
-0.35856941 0.35285684 -0.15420584
0.25816357 0.35231429 -0.15240009
0.32695246 0.35125759 -0.15244922
-0.42598239 0.45042714 -0.14947456
-0.35731736 0.45272267 -0.15352672
0.25872478 0.45250061 -0.15255456
0.32739383 0.45090789 -0.15050931
-0.41833308 0.51672369 -0.14038156
-0.37296668 0.5206995 -0.15839535
0.27417675 0.52050906 -0.15919396
0.31921038 0.51695913 -0.14115487
-0.43313828 -0.42008859 -0.047901083
-0.35002649 -0.42472881 -0.048955303
-0.2499494 -0.42472491 -0.049318649
-0.15058535 -0.42472452 -0.049917687
-0.050517909 -0.4247224 -0.049430139
0.049467683 -0.42472735 -0.049215939
0.15053461 -0.42472556 -0.049941421
0.24989694 -0.42472428 -0.049250551
0.33309403 -0.42077321 -0.047097564
-0.45155817 -0.35013911 -0.049808312
-0.35036498 -0.35397089 -0.050416175
-0.24714854 -0.36142001 -0.046348035
-0.14924572 -0.36146063 -0.04922799
-0.051557124 -0.36146182 -0.048596043
0.049000982 -0.36145529 -0.048272662
0.14831807 -0.36135587 -0.048312861
0.25326604 -0.35578394 -0.048576128
0.35320008 -0.35279486 -0.05192459
0.47632781 -0.3049885 -0.031434357
0.53022754 -0.30591813 -0.033081166
-0.45152479 -0.25043431 -0.049776752
-0.3859252 -0.24658465 -0.048172414
0.28949708 -0.24760595 -0.051053844
0.36484173 -0.25762647 -0.062828615
0.44844848 -0.25077415 -0.057121992
0.55535251 -0.25803787 -0.058665536
0.62970918 -0.2363106 -0.044497374
-0.45160356 -0.15038623 -0.048801228
-0.38604629 -0.15017486 -0.05387713
0.28909791 -0.14431393 -0.050594911
0.36144516 -0.15460606 -0.050814029
0.41074541 -0.19515283 -0.029108897
0.58325177 -0.16824479 -0.038064092
0.65915453 -0.1493281 -0.05484169
0.70290911 -0.10825386 -0.028580772
-0.45130685 -0.050886478 -0.049925428
-0.38713634 -0.046680294 -0.04835045
0.28965285 -0.048598148 -0.048879772
0.35310075 -0.050451152 -0.050528862
0.65920973 -0.054470211 -0.063528411
0.70948195 -0.046361942 -0.036438134
-0.45141155 0.04957509 -0.049902745
-0.38690454 0.052183554 -0.05252523
0.28803161 0.050756067 -0.052399457
0.35266829 0.049701463 -0.049872298
0.66180331 0.050423715 -0.063614391
0.71450961 0.049669463 -0.04028789
-0.45128632 0.15033239 -0.048607357
-0.38646591 0.15162839 -0.052343432
0.28893837 0.15137231 -0.051726401
0.35250205 0.14999376 -0.050708026
0.59779191 0.19618519 -0.027923618
0.66029084 0.15548252 -0.061275858
0.70832956 0.14068419 -0.035108212
-0.45105571 0.25055572 -0.049073
-0.38689151 0.25480476 -0.053528514
0.28805947 0.25427067 -0.053282961
0.36203894 0.25146046 -0.05469561
0.42661297 0.28971955 -0.036563925
0.57832748 0.2676287 -0.043292865
0.65638041 0.24811548 -0.054104727
0.70102692 0.20577402 -0.025578529
-0.45073485 0.35058582 -0.049642164
-0.38704231 0.35126212 -0.049378537
0.28832549 0.3518213 -0.051362552
0.36121526 0.35563383 -0.058678467
0.45610377 0.35346034 -0.054020133
0.54833788 0.35804686 -0.053528763
0.6254316 0.32933781 -0.042839892
-0.45063466 0.45036307 -0.048681375
-0.38685751 0.45333034 -0.051462725
0.28778306 0.45304888 -0.05250163
0.35097882 0.45235065 -0.049573138
-0.43028837 0.51970428 -0.047917325
-0.39062369 0.51498514 -0.056097444
0.29117924 0.51426846 -0.059559952
0.33114147 0.51999325 -0.046092171
-0.43299875 -0.42012796 0.04910323
-0.35003963 -0.42472315 0.050071761
-0.24985358 -0.42471966 0.050203759
-0.1504944 -0.42471904 0.051048435
-0.050362233 -0.42471856 0.050239056
0.049516555 -0.42472148 0.050314579
0.15047482 -0.42471913 0.050981157
0.24982958 -0.42471832 0.050314743
0.33283287 -0.42086923 0.048738446
-0.45137471 -0.35081229 0.050743815
-0.35210991 -0.35372344 0.05207143
-0.2467014 -0.36141241 0.050057109
-0.14950813 -0.36144975 0.051500313
-0.051414955 -0.36145243 0.050423529
0.050004132 -0.36144254 0.049457107
0.14885607 -0.36135 0.050144453
0.25130436 -0.35618567 0.051944915
0.35167384 -0.35421145 0.052937694
0.47567713 -0.30491415 0.035519477
0.52933294 -0.30590087 0.036540311
-0.45124844 -0.250265 0.050922394
-0.38817039 -0.2441265 0.049854148
0.28762755 -0.24576515 0.053314924
0.36543608 -0.25738177 0.066214964
0.44817954 -0.25088269 0.061020285
0.55499041 -0.2566644 0.063049629
0.62991619 -0.23597354 0.046967879
-0.45122442 -0.1500333 0.050765011
-0.3865326 -0.15012628 0.0542138
0.28796977 -0.14778334 0.055373851
0.35970205 -0.15533748 0.052747756
0.41092432 -0.19583061 0.033030774
0.58215511 -0.16779868 0.04920743
0.65830344 -0.1486474 0.0578533
0.70225042 -0.10923027 0.030620707
-0.45109475 -0.051078692 0.050081223
-0.38705739 -0.04543703 0.052155223
0.28845933 -0.049476143 0.051062208
0.35129461 -0.050748225 0.051434018
0.65326488 -0.054412998 0.066310823
0.70936561 -0.045516171 0.038122702
-0.45097563 0.049646303 0.049909696
-0.38638285 0.052301556 0.053299442
0.28882614 0.050240122 0.050320342
0.35118857 0.049343772 0.051385347
0.65621722 0.050441433 0.067856438
0.71452105 0.048913501 0.041379057
-0.45090213 0.14978857 0.050603598
-0.38753358 0.15219291 0.050338969
0.28779528 0.15202053 0.052538194
0.35109535 0.14993827 0.050919611
0.59834105 0.19528297 0.024371849
0.65542608 0.15531978 0.065348603
0.70823812 0.14130735 0.037089337
-0.45086142 0.24985123 0.050827701
-0.38614535 0.25396478 0.053837582
0.28809848 0.25364813 0.054768737
0.36090332 0.25253654 0.055493165
0.42666829 0.29000226 0.039127879
0.57669461 0.26489323 0.050553665
0.65601671 0.24731012 0.056856398
0.70114863 0.20526659 0.039102927
-0.45056131 0.35085788 0.049967661
-0.38719019 0.35256925 0.052639116
0.28799096 0.35305741 0.052873865
0.36125883 0.35432559 0.062187612
0.45596835 0.35409898 0.058505375
0.54812896 0.35768041 0.056648642
0.62579668 0.32883245 0.045153227
-0.45013791 0.45016992 0.049691685
-0.3868027 0.45239547 0.051486909
0.2878277 0.45199764 0.054660618
0.34938183 0.45246619 0.051632438
-0.43063048 0.51988524 0.049584612
-0.39013728 0.51487029 0.058299344
0.29070866 0.51397401 0.060101617
0.33050764 0.5199821 0.048891015
-0.42003974 -0.41778347 0.14294311
-0.35022441 -0.42465338 0.15018643
-0.24968798 -0.42471406 0.15013464
-0.15071611 -0.42472082 0.15045194
-0.050124593 -0.42471117 0.15025048
0.049159881 -0.424714 0.15016249
0.15072678 -0.42472085 0.15045202
0.24957296 -0.42467842 0.15005426
0.32043207 -0.41792309 0.143333
-0.42605299 -0.3509537 0.14918992
-0.34968701 -0.34874579 0.15432593
-0.24770699 -0.36141959 0.1482176
-0.15065365 -0.3614226 0.14939547
-0.052287903 -0.3614375 0.14779213
0.047527838 -0.36141521 0.14898323
0.15052715 -0.36137444 0.14828376
0.24679911 -0.35177666 0.15172578
0.32553884 -0.35139206 0.1519538
-0.42606825 -0.25043803 0.14906314
-0.37346494 -0.2470658 0.16804972
0.26687878 -0.24669714 0.15793434
0.3250314 -0.25161105 0.1521685
-0.42582828 -0.1501129 0.14974952
-0.36536917 -0.15090534 0.16279243
0.265329 -0.14931592 0.16340435
0.32490924 -0.15031554 0.15230383
-0.42597571 -0.050811615 0.14949644
-0.36135197 -0.046873916 0.15583761
0.26097929 -0.047515243 0.15097041
0.32518831 -0.051156163 0.15156423
-0.42599034 0.049535889 0.14942344
-0.36190262 0.051419348 0.15579711
0.25893468 0.049101703 0.15347885
0.32538217 0.049713358 0.15112677
-0.42576435 0.15016562 0.14981844
-0.36058536 0.15403941 0.15677202
0.2610479 0.15416062 0.15887403
0.32514066 0.15015997 0.15171473
-0.42587885 0.25032455 0.14926423
-0.36111468 0.25216892 0.1573084
0.259462 0.25388455 0.1529891
0.32485133 0.2506206 0.15205492
-0.42598227 0.35084569 0.14895816
-0.35810447 0.3526679 0.15354535
0.25780466 0.351556 0.15405762
0.32463783 0.35137799 0.1525166
-0.42559892 0.4505755 0.15009166
-0.35699457 0.45340571 0.15192772
0.25820062 0.45247886 0.15320559
0.32554105 0.45113781 0.15151162
-0.41850358 0.51690495 0.14019541
-0.37305272 0.5207423 0.15857442
0.27365333 0.52059388 0.15885165
0.31847227 0.51701719 0.14235978
-0.40311545 -0.41271123 0.20860983
-0.34429246 -0.42050764 0.24425276
-0.24947286 -0.42472556 0.24998364
-0.15104493 -0.42472035 0.25039154
-0.051172908 -0.4247233 0.25000265
0.050243359 -0.42472598 0.24989431
0.15105772 -0.42472041 0.25039193
0.24389559 -0.42075077 0.2441833
0.30392742 -0.41074464 0.20904037
-0.40366858 -0.35097021 0.20789926
-0.36206159 -0.35031325 0.25503382
-0.24426387 -0.35303584 0.247742
-0.14948083 -0.36136812 0.25042814
-0.051214505 -0.3614257 0.25046355
0.047130153 -0.36138555 0.24976543
0.14857228 -0.35280797 0.24912824
0.26224655 -0.3504436 0.25536147
0.3043108 -0.35055697 0.2090182
-0.40423405 -0.25346068 0.20664132
-0.3623127 -0.25041768 0.25408345
-0.26070583 -0.24932702 0.26655349
0.15947029 -0.24457417 0.26996782
0.26233327 -0.25051934 0.25485882
0.30460215 -0.25221246 0.20645809
-0.40385225 -0.15094328 0.20674036
-0.36189586 -0.14991996 0.2543436
-0.26095369 -0.1475303 0.26845738
0.15783668 -0.14782578 0.27072987
0.26200312 -0.14979433 0.2551513
0.30412406 -0.15107399 0.20740175
-0.40485078 -0.051238582 0.20742749
-0.36171612 -0.050476994 0.25374597
-0.25855213 -0.049883373 0.26905897
-0.19907379 -0.031461477 0.29793262
0.097059578 -0.023779422 0.29930368
0.16108236 -0.046781864 0.26791835
0.2615231 -0.050171915 0.25418773
0.30424249 -0.049340602 0.20721182
-0.40485278 0.049649306 0.20747779
-0.36111262 0.049589999 0.25340211
-0.25896281 0.052269325 0.26925242
0.15956615 0.052613284 0.26883972
0.26140547 0.049926661 0.25360009
0.30397487 0.048926301 0.20753442
-0.40397009 0.15050605 0.2072389
-0.36032504 0.1501269 0.25272375
-0.25962198 0.15208074 0.26802927
-0.19882217 0.13517943 0.29884893
0.098400712 0.1430811 0.29934087
0.15954973 0.15380818 0.26944476
0.26010057 0.15054123 0.25405356
0.30371457 0.14741725 0.20833519
-0.40409136 0.25576842 0.20634776
-0.35995683 0.25021863 0.25243551
-0.26041922 0.25183073 0.26803023
-0.19892004 0.25401741 0.29954854
0.15808544 0.2522727 0.27058807
0.2596918 0.25109005 0.25276342
0.30409989 0.2534675 0.20605202
-0.40382427 0.35003185 0.20751584
-0.35760435 0.35061708 0.25117025
-0.2595357 0.35301292 0.26827338
-0.19909847 0.32472408 0.29755694
0.16028315 0.35291398 0.26839468
0.25803494 0.3511031 0.25234127
0.30457708 0.35026622 0.20631108
-0.40402886 0.44922417 0.2076264
-0.35751557 0.45116052 0.25029707
-0.25955597 0.45114648 0.26769701
-0.19820623 0.44765806 0.29911754
0.096827388 0.452618 0.29918435
0.15969022 0.45168677 0.26944157
0.2564058 0.4509775 0.2513355
0.30418012 0.45290902 0.20913266
-0.40352616 0.50757432 0.2047665
-0.34291804 0.51914465 0.24389867
-0.26866111 0.51808953 0.27671722
0.16964483 0.51824874 0.27746499
0.24316078 0.51925987 0.24481721
0.30529147 0.50821853 0.20587923
-0.31084222 -0.41420969 0.31048921
-0.24401809 -0.4199757 0.33495662
-0.14912798 -0.42211735 0.35257459
-0.050089229 -0.4241243 0.35131994
0.04888485 -0.42255908 0.35187408
0.14360902 -0.41986808 0.33544764
0.21187814 -0.41370144 0.31059927
-0.31301099 -0.350214 0.31050649
-0.25208282 -0.35009816 0.35012737
-0.15882581 -0.349172 0.38522241
-0.04960911 -0.34886846 0.38033453
0.058666278 -0.35056701 0.3852134
0.15163635 -0.35044524 0.35111484
0.21344723 -0.35076642 0.31135431
-0.31310275 -0.24909759 0.31080157
-0.25183275 -0.24958165 0.34994751
-0.1590753 -0.25043169 0.38525
-0.051796295 -0.2485148 0.38640952
0.057980333 -0.24998373 0.38545284
0.15103169 -0.25008181 0.35112044
0.21335176 -0.25130913 0.31160811
-0.31282905 -0.14987214 0.31113753
-0.25093973 -0.15034658 0.35027859
-0.15789457 -0.1501538 0.38454235
-0.051885005 -0.14947745 0.382727
0.057179678 -0.14964102 0.38573003
0.15124543 -0.15049237 0.35077935
0.21375883 -0.14970011 0.31156427
-0.31284651 -0.050509308 0.31093949
-0.25079146 -0.050601326 0.3503544
-0.15769145 -0.050774608 0.38333696
-0.052484583 -0.048088498 0.38043028
0.057798583 -0.050533179 0.38331115
0.15136507 -0.05071649 0.35076603
0.21366467 -0.049279403 0.3107453
-0.31280529 0.048799548 0.31088355
-0.25110939 0.050303329 0.3498162
-0.15741485 0.05048022 0.38085192
-0.050914291 0.048789252 0.37584859
0.056646183 0.050490323 0.38075876
0.15057957 0.049388252 0.35056949
0.2135068 0.04892657 0.31080246
-0.31270608 0.14943258 0.31116459
-0.25035852 0.15048456 0.34949163
-0.15728353 0.15038921 0.37851852
-0.051636674 0.15185079 0.37066144
0.056769069 0.15044899 0.37886894
0.15100777 0.15009964 0.34978375
0.21375903 0.14965498 0.31126902
-0.31333929 0.24951589 0.31056318
-0.25078285 0.24949782 0.3488926
-0.15743348 0.25130126 0.37458766
-0.051536012 0.2518141 0.36566716
0.056309823 0.25033396 0.37556684
0.15014973 0.24991126 0.35016152
0.21336073 0.25152555 0.31149018
-0.31326118 0.35055593 0.31020924
-0.25072443 0.35006523 0.34772429
-0.15745667 0.35080793 0.37115395
-0.05023846 0.35299399 0.36218989
0.056250125 0.35124132 0.37138212
0.14964364 0.35040969 0.34892869
0.21303411 0.35038728 0.31171036
-0.31169477 0.4505488 0.31171113
-0.24901003 0.45074764 0.34816402
-0.15624866 0.45071292 0.3671906
-0.050683584 0.45084032 0.35841691
0.055501789 0.45061937 0.36753693
0.14911705 0.45077482 0.34803972
0.21402498 0.44868588 0.31126162
-0.30920598 0.5102461 0.30980167
-0.24243931 0.51927525 0.33273828
-0.15179278 0.51892531 0.36032715
-0.05093687 0.52066207 0.36987373
0.050977733 0.51912588 0.36072943
0.14329255 0.51897383 0.33319724
0.21027254 0.51161593 0.30920896
-0.11912442 -0.41123706 0.4038229
-0.051670417 -0.41290653 0.40594083
0.020650636 -0.41205031 0.40364954
-0.11953598 -0.34854886 0.40429366
-0.050817303 -0.34961116 0.40676138
0.019692982 -0.35184467 0.40397921
-0.12069881 -0.24831589 0.40427965
-0.05033002 -0.24920928 0.40684301
0.01917585 -0.25199297 0.40428951
-0.12062334 -0.15098254 0.40428898
-0.050571993 -0.15006912 0.40680757
0.017369429 -0.1514959 0.40476093
-0.12049072 -0.051389679 0.40428221
-0.050901093 -0.050467048 0.40672413
0.021272261 -0.051027823 0.40402442
-0.11980361 0.049306769 0.40455753
-0.050650403 0.049744312 0.40661192
0.020957094 0.048975471 0.40415132
-0.11956122 0.15113242 0.40449294
-0.051144388 0.15053833 0.40663037
0.017231302 0.15160935 0.40474108
-0.12136724 0.2484659 0.40422791
-0.05037817 0.24961531 0.40667397
0.019642744 0.25120902 0.40429607
-0.11957255 0.34932438 0.40413192
-0.050898053 0.34953234 0.40655088
0.019920105 0.35102803 0.40398976
-0.11963896 0.44944748 0.40405053
-0.05179698 0.45057842 0.40662637
0.020645706 0.44932446 0.4039388
-0.11830571 0.50680715 0.40312371
-0.048078194 0.50931394 0.40466696
0.015425287 0.50667191 0.403146
