# .PCD v0.7 - Point Cloud Data file format
VERSION 0.7
FIELDS x y z
SIZE 4 4 4
TYPE F F F
COUNT 1 1 1
WIDTH 548
HEIGHT 1
VIEWPOINT 0 0 0 1 0 0 0
POINTS 548
DATA ascii
-0.21041541 -0.42734346 -0.40416962
-0.14767385 -0.43037093 -0.41656873
-0.051605139 -0.4330104 -0.42462006
0.046780661 -0.43071669 -0.4170683
0.11037192 -0.42712671 -0.40446314
-0.21038491 -0.35184506 -0.40419835
-0.1495131 -0.34993073 -0.4183391
-0.050130643 -0.35014871 -0.42951375
0.049442708 -0.35116026 -0.41888466
0.11062703 -0.34845957 -0.40476745
-0.21045437 -0.25062138 -0.40345448
-0.14862587 -0.24982089 -0.41844529
-0.049175225 -0.25005397 -0.42950496
0.049451418 -0.24977697 -0.41882491
0.11111043 -0.25087166 -0.40455264
-0.21061912 -0.14948626 -0.40397415
-0.15032944 -0.15023954 -0.41815382
-0.050807655 -0.14907883 -0.42948121
0.049747877 -0.14942786 -0.41862059
0.11096291 -0.14968382 -0.40433535
-0.21046142 -0.049704902 -0.40400642
-0.15022987 -0.049748845 -0.4178718
-0.050701771 -0.049369302 -0.42932791
0.049741141 -0.049780227 -0.41858822
0.11152413 -0.048810381 -0.40452877
-0.21027602 0.050627183 -0.403916
-0.14966214 0.050274808 -0.41829529
-0.050557993 0.050377849 -0.42883953
0.049058095 0.050390445 -0.41861641
0.11046297 0.049604427 -0.40438929
-0.21102166 0.14922771 -0.4035157
-0.14921506 0.14962094 -0.41835058
-0.049207393 0.15001458 -0.42817691
0.04995675 0.1503215 -0.41854933
0.11093175 0.14887443 -0.40465522
-0.21009602 0.24903074 -0.4039872
-0.1497286 0.25001714 -0.41815045
-0.050254628 0.24955767 -0.42786577
0.049229559 0.24996775 -0.41864806
0.11069185 0.24871399 -0.40474311
-0.2100379 0.35023215 -0.40415031
-0.14954881 0.35079774 -0.41793835
-0.050548252 0.34948698 -0.42700383
0.049413692 0.35032603 -0.41853681
0.11080444 0.35092562 -0.40423974
-0.21007475 0.43299082 -0.4042412
-0.14685111 0.43833253 -0.41641259
-0.050336409 0.44109219 -0.42337835
0.047304332 0.43864569 -0.41662014
0.11049958 0.43330294 -0.40455693
-0.3266274 -0.43123406 -0.32462218
-0.24835399 -0.43769509 -0.3539108
-0.14998457 -0.44406122 -0.35030612
-0.050396286 -0.44383004 -0.35030401
0.049914021 -0.44450542 -0.3502605
0.14889649 -0.43759471 -0.35382003
0.22868158 -0.43063474 -0.32496312
-0.33014718 -0.35064161 -0.32624403
-0.25525013 -0.35007548 -0.37446856
-0.15788202 -0.34611121 -0.38534001
-0.051018622 -0.34691584 -0.38978767
0.063531511 -0.34785488 -0.38702261
0.15673229 -0.3497918 -0.37511382
0.23123361 -0.34948727 -0.32714093
-0.32990861 -0.25101483 -0.32616064
-0.25543034 -0.24905497 -0.37395185
-0.16489108 -0.24650101 -0.38475201
-0.048412208 -0.24770769 -0.38961717
0.062209249 -0.25003707 -0.38675478
0.1570736 -0.24900325 -0.37446067
0.2319468 -0.24981107 -0.32675582
-0.33008203 -0.15085597 -0.32606548
-0.25578836 -0.14877199 -0.37266043
-0.16155443 -0.14736669 -0.38569343
-0.049448628 -0.14770572 -0.39245126
0.0584464 -0.14735447 -0.38470295
0.15705208 -0.14847235 -0.37334636
0.23179194 -0.15031433 -0.32616144
-0.32950842 -0.050049379 -0.32631919
-0.25544152 -0.049175203 -0.37134677
-0.1588583 -0.048419066 -0.38401204
-0.051714137 -0.049588047 -0.3919203
0.053445086 -0.046904165 -0.3820813
0.15724003 -0.049492549 -0.3721959
0.23197897 -0.050433595 -0.32593271
-0.32962075 0.050301433 -0.32583243
-0.25564593 0.051079001 -0.36995918
-0.16018833 0.052070994 -0.38273171
-0.049693383 0.055808857 -0.39152926
0.057913162 0.050752163 -0.38401335
0.1566526 0.050370712 -0.37063542
0.23149711 0.050390098 -0.32634115
-0.32962561 0.14972733 -0.32561225
-0.2541956 0.15130781 -0.36917546
-0.15372758 0.15263648 -0.38371891
-0.047128912 0.15140834 -0.39155844
0.055708159 0.15315396 -0.38362277
0.1561871 0.15094534 -0.36975503
0.23137613 0.15037096 -0.32629514
-0.32901767 0.24930713 -0.3258068
-0.25476861 0.2513102 -0.36683595
-0.15475856 0.25332239 -0.38199672
-0.049829729 0.25340173 -0.39188305
0.055030759 0.25261298 -0.38306877
0.15534517 0.25143421 -0.3681311
0.23001097 0.25027111 -0.32628348
-0.32890871 0.35038975 -0.32533082
-0.25424895 0.35038435 -0.36522955
-0.15212309 0.35177273 -0.38166139
-0.047072362 0.35377675 -0.3917141
0.053865194 0.35250971 -0.38220498
0.15520202 0.35055992 -0.3657749
0.2302435 0.34998986 -0.3260217
-0.32657135 0.43904281 -0.3236452
-0.25289649 0.44109213 -0.36203563
-0.15708379 0.44398519 -0.38486809
-0.051473975 0.43944672 -0.39227369
0.056234032 0.44410262 -0.38457951
0.15345426 0.4411554 -0.3631281
0.22806615 0.43887112 -0.32373857
-0.41511148 -0.42883873 -0.2248361
-0.35353178 -0.43970042 -0.25321493
-0.24997033 -0.44356528 -0.25004148
-0.15008885 -0.4432267 -0.25017998
-0.050131086 -0.44290054 -0.25018185
0.050044905 -0.4428972 -0.25032738
0.14978023 -0.4431349 -0.25026
0.25414222 -0.4394908 -0.2527945
0.31694326 -0.42946705 -0.22587435
-0.41594547 -0.35024336 -0.22675566
-0.37625265 -0.35045126 -0.27254686
-0.29520836 -0.3367658 -0.29787397
0.27796242 -0.34972212 -0.27379414
0.3178845 -0.3500053 -0.22806886
-0.41637585 -0.25008947 -0.2262934
-0.37666741 -0.25058812 -0.27157605
0.19835263 -0.28776777 -0.29988158
0.27708226 -0.25023162 -0.27297589
0.31788853 -0.24999659 -0.22799708
-0.41654563 -0.15013053 -0.22583959
-0.37529674 -0.14913456 -0.27061421
-0.29920623 -0.12736888 -0.29323003
0.27647787 -0.15025473 -0.27229291
0.31802535 -0.15036832 -0.22814029
-0.41654125 -0.050279606 -0.22582808
-0.37410903 -0.048785042 -0.26999426
-0.29514122 -0.042662531 -0.29722255
0.19946983 -0.068686306 -0.29495484
0.2747876 -0.04930263 -0.27187318
0.31781909 -0.0509944 -0.22838987
-0.4163819 0.050372638 -0.22579733
-0.37294108 0.050765373 -0.26872823
-0.29683283 0.058917671 -0.29900143
0.19851075 0.084075689 -0.29650956
0.27324238 0.051084548 -0.27068746
0.3178511 0.049916603 -0.22817349
-0.4166556 0.14992662 -0.2258646
-0.37130266 0.14980409 -0.26793036
-0.29656246 0.14869909 -0.2974999
0.19819511 0.14635356 -0.29779217
0.27158016 0.15108407 -0.26947454
0.31773552 0.15049225 -0.22807632
-0.41582417 0.25099337 -0.22666512
-0.3690294 0.25088441 -0.2666809
-0.2980265 0.25357249 -0.29587016
0.19839659 0.2512711 -0.29866287
0.2703653 0.25164241 -0.26761234
0.31801343 0.25102368 -0.2275878
-0.41628528 0.35109365 -0.22604525
-0.36782479 0.351428 -0.26522928
-0.29614359 0.36824295 -0.29806799
0.19689059 0.34116042 -0.2991609
0.26850948 0.35154688 -0.26594043
0.31749448 0.35131067 -0.2281709
-0.41533399 0.43711177 -0.22371067
-0.36602464 0.44225788 -0.2620655
-0.29667479 0.42777735 -0.29743403
0.19785503 0.42207298 -0.29788151
0.26724601 0.44262001 -0.26300207
0.31632334 0.43757552 -0.22609098
-0.43834034 -0.43559498 -0.1476689
-0.34984282 -0.44333875 -0.14988559
-0.24947985 -0.44282469 -0.15015513
-0.15048198 -0.443214 -0.15012303
-0.050146118 -0.44304317 -0.15009141
0.050091434 -0.4428761 -0.14970891
0.15057011 -0.44295171 -0.15031825
0.25065324 -0.44331858 -0.15018184
0.34019309 -0.43572271 -0.14741892
-0.44989082 -0.35020861 -0.15067557
-0.39095613 -0.33995214 -0.18269861
0.29357916 -0.34198105 -0.1893921
0.35263953 -0.35009551 -0.1513007
-0.44928879 -0.25057921 -0.1509427
-0.39330241 -0.24022941 -0.18429601
0.29425213 -0.25135413 -0.18407002
0.35234192 -0.24990372 -0.15131789
-0.44883364 -0.14933325 -0.15089968
-0.39295313 -0.15121363 -0.18520966
0.29375306 -0.14662039 -0.18816841
0.35094196 -0.14927915 -0.15087402
-0.44830939 -0.048771515 -0.15041946
-0.39141965 -0.055889748 -0.18594204
0.29381168 -0.046745673 -0.1926478
0.35088992 -0.049160983 -0.15016711
-0.4472779 0.050251652 -0.15031368
-0.39241394 0.053243067 -0.18634146
0.29412177 0.047436617 -0.18802263
0.35025373 0.050832368 -0.15027413
-0.44598684 0.15038094 -0.14987323
-0.39137575 0.15693143 -0.18512774
0.29350418 0.14890257 -0.18711312
0.34802571 0.15084685 -0.15080784
-0.44468975 0.25085288 -0.15000336
-0.39276919 0.2550371 -0.18531892
0.29221991 0.25734061 -0.1900166
0.34625134 0.25141227 -0.15082344
-0.44356239 0.35069492 -0.14888529
-0.39326379 0.35105059 -0.18572669
0.29297096 0.35357881 -0.18651375
0.34526291 0.35124895 -0.15029156
-0.43979773 0.44064295 -0.14873531
-0.39254978 0.43654168 -0.18613225
0.29364398 0.4359962 -0.18642329
0.34084883 0.44137803 -0.14991044
-0.45171142 -0.43757319 -0.049724374
-0.34924355 -0.44344059 -0.050584152
-0.24987721 -0.44286004 -0.05051519
-0.15088062 -0.44328165 -0.051260222
-0.049246702 -0.44364575 -0.05049976
0.050096728 -0.44278058 -0.05034079
0.15077013 -0.44265041 -0.051045239
0.2507138 -0.44385666 -0.050500281
0.3526161 -0.43782628 -0.05012773
-0.47410148 -0.35034111 -0.050559279
0.37867543 -0.35290405 -0.0543813
0.44904944 -0.31127217 -0.036381274
0.51563895 -0.30410656 -0.02238418
-0.47379881 -0.24964511 -0.05104075
0.37680784 -0.24279739 -0.06008818
0.4531104 -0.26761842 -0.05706802
0.55428469 -0.26198429 -0.051395241
0.6348877 -0.23413096 -0.045642041
-0.47267273 -0.14967093 -0.050311327
0.37483487 -0.14931501 -0.052123319
0.59006172 -0.18822454 -0.023420457
0.6655724 -0.15458916 -0.051647242
0.70369303 -0.12088999 -0.021253381
-0.47159255 -0.049399082 -0.051437985
0.37364769 -0.049366586 -0.050709233
0.67231679 -0.05273838 -0.05923162
0.70794207 -0.046925232 -0.031463966
-0.47109267 0.05010891 -0.050642297
0.37274897 0.050087884 -0.051899645
0.67293805 0.049424555 -0.0607653
0.71045679 0.050472587 -0.036646232
-0.46966341 0.15019178 -0.050982866
0.37070388 0.15066522 -0.051536012
0.6730904 0.15103488 -0.061706562
0.70951587 0.14871503 -0.034849484
-0.46791726 0.25093147 -0.05073284
0.36905774 0.25160068 -0.052617133
0.44008973 0.29851791 -0.01154509
0.5609284 0.29527426 -0.022679962
0.6665405 0.25694376 -0.054715756
0.70569843 0.22633328 -0.026625112
-0.46622142 0.35064295 -0.051298216
0.36765257 0.35673755 -0.057963237
0.45188022 0.33918059 -0.048655227
0.54903597 0.34159559 -0.053023458
0.63858593 0.32750398 -0.045900509
-0.46217814 0.44084248 -0.051141601
0.3642652 0.44186255 -0.05100574
-0.45162255 -0.43754324 0.048404135
-0.34914574 -0.44319916 0.048811927
-0.24981663 -0.44260544 0.048782736
-0.15099022 -0.44301149 0.049362734
-0.049241871 -0.44340235 0.048733804
0.050155755 -0.44255921 0.048508
0.15069158 -0.44242698 0.048970442
0.25088924 -0.4435989 0.048873004
0.35228193 -0.43789279 0.048889417
-0.47411504 -0.35034847 0.050062556
0.37824348 -0.35216528 0.053589378
0.44814885 -0.31202373 0.039102532
0.51554227 -0.30435219 0.023295753
-0.47336647 -0.24996607 0.049845658
0.37521052 -0.24383387 0.059404157
0.45353779 -0.26583916 0.061536014
0.55431437 -0.26020086 0.055047978
0.63553154 -0.23443933 0.046653654
-0.47273126 -0.14896265 0.049401462
0.37250489 -0.14877588 0.051630132
0.59112823 -0.18923062 0.026558157
0.66230845 -0.15379871 0.055519208
0.70388567 -0.12009967 0.02082485
-0.47173935 -0.049306594 0.048997995
0.37167364 -0.049257562 0.051791314
0.66743261 -0.051976148 0.065202311
0.70799619 -0.047043845 0.030994002
-0.47087154 0.0499226 0.049402982
0.37087867 0.05000807 0.051230792
0.66722929 0.049723689 0.065872885
0.71065247 0.049357269 0.03724616
-0.46950632 0.15062551 0.049728889
0.36896998 0.15102416 0.05098452
0.66717529 0.15122193 0.065743722
0.70979577 0.14920901 0.033810262
-0.46796489 0.25051206 0.050015047
0.36698467 0.25128123 0.051424574
0.45539376 0.29919323 0.011440151
0.5581128 0.29501772 0.027959766
0.66308737 0.25618187 0.058301736
0.70562017 0.22725305 0.025868194
-0.46627456 0.35077432 0.049760938
0.36784866 0.35617328 0.057808686
0.4514704 0.34040999 0.052820396
0.54910761 0.34285241 0.055292062
0.63928413 0.32804045 0.045887105
-0.4625456 0.44070971 0.04899729
0.36369875 0.44199827 0.050228745
-0.4384847 -0.43555874 0.14743941
-0.34972569 -0.44340384 0.14991182
-0.24942134 -0.44281608 0.15022695
-0.15050606 -0.44321769 0.15020755
-0.050139386 -0.44305882 0.14989974
0.050085369 -0.44291651 0.14957365
0.15063319 -0.44288278 0.15030161
0.25068656 -0.44320276 0.15022078
0.33976659 -0.43572336 0.14711751
-0.44977483 -0.35042676 0.15126391
-0.39136887 -0.3508268 0.18311973
0.29699373 -0.34674582 0.18414918
0.35126346 -0.35056895 0.15174021
-0.44930202 -0.25019673 0.15103978
-0.3921054 -0.23709668 0.1835162
0.29461116 -0.2494339 0.18617608
0.34979793 -0.25023463 0.15205863
-0.44875452 -0.1497592 0.1502749
-0.3932617 -0.14199993 0.18758592
0.29500803 -0.14555249 0.1869797
0.34897617 -0.14931224 0.15106359
-0.44795451 -0.049727723 0.15108147
-0.39260417 -0.056818295 0.1852634
0.29287034 -0.047682218 0.19144732
0.34825128 -0.049357105 0.15143274
-0.44721597 0.050207853 0.1504935
-0.39337021 0.054526109 0.18593585
0.29408571 0.050965469 0.18937711
0.34752351 0.051132202 0.15077069
-0.44607726 0.1503821 0.15001243
-0.39296061 0.14859405 0.18655911
0.29446959 0.1536732 0.18771163
0.34609783 0.15084477 0.15085459
-0.44498503 0.25103658 0.14990321
-0.39256427 0.25404283 0.18506958
0.29343325 0.24970992 0.18754934
0.34426945 0.25180262 0.15082587
-0.44300881 0.35101461 0.14905635
-0.39192384 0.35056978 0.18531059
0.29402006 0.35057029 0.18618539
0.34370664 0.35149875 0.14961964
-0.43949619 0.44059899 0.14906961
-0.39304277 0.44024563 0.18710104
0.2925339 0.43552172 0.18919314
0.34066838 0.44155154 0.14944626
-0.41507411 -0.42960513 0.22480132
-0.35345262 -0.43970114 0.25284663
-0.25001532 -0.44348696 0.250025
-0.15014917 -0.44319898 0.25024602
-0.050072577 -0.4429656 0.25005987
0.049918972 -0.4429844 0.25025192
0.14956546 -0.44313124 0.25030026
0.25380924 -0.43971807 0.25268272
0.31658307 -0.42961273 0.22567268
-0.41615948 -0.34999007 0.22686794
-0.37688443 -0.35057724 0.27176994
-0.29889262 -0.31743515 0.29229006
0.19609642 -0.3825376 0.29914546
0.27736762 -0.34948784 0.27391228
0.31722987 -0.35063067 0.22787985
-0.41567028 -0.24975377 0.22708263
-0.37606928 -0.25032386 0.27184194
-0.29811466 -0.24490803 0.2981686
0.27661648 -0.25021657 0.27325743
0.31672683 -0.25023776 0.22820129
-0.41649559 -0.15050781 0.22584133
-0.37552321 -0.14956445 0.27116981
-0.2918953 -0.14778829 0.29892907
0.19790137 -0.14213842 0.29854435
0.27496088 -0.15019774 0.2716251
0.31700617 -0.15047126 0.22744954
-0.41600758 -0.050131131 0.22586119
-0.37457135 -0.049675103 0.27012545
-0.29610166 -0.023565749 0.29743713
0.19750416 -0.039466143 0.29598805
0.27478144 -0.049364325 0.27082115
0.31720302 -0.050842479 0.22674254
-0.41613188 0.050462823 0.22648959
-0.37264803 0.050183661 0.26929671
-0.29734841 0.089610279 0.29645747
0.19754648 0.078071445 0.29860795
0.27310014 0.0505553 0.26979506
0.31701297 0.050035462 0.22765401
-0.4159421 0.15068741 0.22648494
-0.37113056 0.14959596 0.26794139
-0.29735425 0.14761463 0.29719403
0.19880709 0.1087594 0.2961787
0.27179381 0.15080389 0.26897731
0.31644198 0.15032814 0.22773089
-0.4159371 0.25080037 0.22657599
-0.36940998 0.25100091 0.26572853
-0.29795921 0.24693277 0.29723084
0.19846179 0.26169649 0.29792434
0.270042 0.25192311 0.26693439
0.31691128 0.2513656 0.22723483
-0.41623804 0.35128027 0.22599284
-0.36795774 0.35153481 0.26502419
-0.29653385 0.352016 0.29750237
0.19895262 0.38366342 0.29959184
0.26876557 0.35150489 0.26543483
0.31719851 0.35094592 0.2269911
-0.4151324 0.43756276 0.22420931
-0.36568266 0.44273329 0.26249707
-0.29784426 0.44429198 0.2971034
0.19791186 0.41751796 0.29821426
0.26712808 0.44260561 0.26351368
0.31578407 0.43798411 0.22538857
-0.32747477 -0.43085119 0.32410669
-0.24866225 -0.43783382 0.35361725
-0.1502386 -0.44417191 0.35019204
-0.050498776 -0.44362244 0.35033458
0.050055705 -0.44441792 0.3502855
0.14948902 -0.43766463 0.35347462
0.22876741 -0.43109649 0.3248474
-0.33100462 -0.35079536 0.32546058
-0.25597689 -0.35037482 0.37401074
-0.15997027 -0.34847173 0.38595459
-0.04467757 -0.3478325 0.39024666
0.06239206 -0.35021368 0.38609892
0.15706013 -0.34927517 0.37487209
0.23155329 -0.35023388 0.3268702
-0.33042386 -0.25108242 0.32603157
-0.25525168 -0.24924542 0.3741228
-0.15765442 -0.24792045 0.38496035
-0.052288968 -0.25128603 0.38932532
0.05721502 -0.24851634 0.38318989
0.15664589 -0.25003168 0.37434247
0.23162597 -0.24921182 0.32672057
-0.32963902 -0.15029684 0.3261894
-0.25532597 -0.14828232 0.37310958
-0.15926464 -0.14951435 0.38328385
-0.051174652 -0.14859238 0.39227647
0.056513306 -0.14589199 0.38457447
0.15639256 -0.14922455 0.37333855
0.23162469 -0.15009813 0.326702
-0.32955208 -0.050236557 0.32626328
-0.25503749 -0.049035642 0.37175328
-0.15701027 -0.047918625 0.38189295
-0.052192826 -0.050305966 0.3926475
0.056355223 -0.047836456 0.38293949
0.15711844 -0.049357992 0.37147555
0.23187855 -0.050468426 0.32640737
-0.32922706 0.050129991 0.32611278
-0.2550967 0.050884243 0.3703779
-0.15729786 0.052245874 0.38353443
-0.046837769 0.052912839 0.39131504
0.057224404 0.051250868 0.38187367
0.15641767 0.050160639 0.37070736
0.23073189 0.050365526 0.3264437
-0.33020034 0.14957674 0.32515201
-0.25489411 0.15105967 0.36910859
-0.15519419 0.15180659 0.38275039
-0.048904464 0.15056221 0.39142179
0.053092007 0.15009618 0.38292551
0.15608647 0.15087499 0.36959347
0.23123683 0.15004279 0.32604316
-0.330201 0.24925479 0.32502395
-0.25484118 0.25128925 0.36658642
-0.15521608 0.25339869 0.3817926
-0.049618348 0.25274763 0.39191133
0.055600367 0.25306797 0.38283533
0.15533741 0.25121054 0.36788309
0.23034541 0.25014895 0.32604194
-0.32935348 0.35048598 0.32515895
-0.25423309 0.35055172 0.36502579
-0.1539977 0.35161448 0.38161564
-0.050823964 0.35245314 0.39151782
0.05522272 0.35272369 0.3823669
0.1557395 0.35085133 0.36531529
0.23035997 0.3499428 0.32569027
-0.32681179 0.43903205 0.32346982
-0.2534914 0.44090545 0.36174768
-0.15679622 0.44486937 0.38424718
-0.049403094 0.43854767 0.39230722
0.057236321 0.44392222 0.38507971
0.15408354 0.44108057 0.36241716
0.22770789 0.43900272 0.32416719
-0.21157345 -0.42562675 0.4043723
-0.14739782 -0.43036395 0.41645166
-0.051118132 -0.43319577 0.424541
0.047106355 -0.4306863 0.41696894
0.11024869 -0.42578197 0.40418226
-0.21218105 -0.34952462 0.40401298
-0.1486917 -0.3502681 0.41840115
-0.049971364 -0.35075063 0.42946786
0.049206953 -0.3507705 0.41897699
0.11173369 -0.35233954 0.40429777
-0.20937191 -0.24798596 0.40468872
-0.14897354 -0.24998845 0.41843745
-0.04917942 -0.25020835 0.4293327
0.049487814 -0.24994846 0.41870585
0.11117105 -0.24949798 0.4044269
-0.20939313 -0.15099834 0.40465119
-0.14986834 -0.15002571 0.4180069
-0.049878042 -0.14905374 0.42948589
0.050163858 -0.14978406 0.41849899
0.11140412 -0.14565434 0.40470833
-0.21087028 -0.048621554 0.40376031
-0.14978385 -0.050397001 0.4182933
-0.049731292 -0.049216971 0.42911103
0.049896955 -0.050279465 0.4187372
0.11085691 -0.049148608 0.40499449
-0.20918885 0.05065272 0.40473127
-0.14869939 0.049549889 0.41828138
-0.049378593 0.050580692 0.42869449
0.049983423 0.050071489 0.41859061
0.11146273 0.050781105 0.40459746
-0.20968135 0.15010476 0.40464082
-0.14905572 0.14968528 0.41814211
-0.049969409 0.14995006 0.42827332
0.0494988 0.15005581 0.41853839
0.11044446 0.15063275 0.40459609
-0.21249039 0.25144169 0.40416327
-0.14979355 0.25007954 0.41787612
-0.049882315 0.24972728 0.42791328
0.049581792 0.24971087 0.41859102
0.11231071 0.24985594 0.40428042
-0.21087596 0.35096821 0.40427351
-0.14902134 0.35042834 0.41810262
-0.049945787 0.3501679 0.42697662
0.049246546 0.35044736 0.41850683
0.11099859 0.34962609 0.40455192
-0.20972942 0.43210936 0.40395018
-0.14724126 0.4384723 0.41633484
-0.050881974 0.44070691 0.42315066
0.047148526 0.43876484 0.41676793
0.11092982 0.43267006 0.40387961
