# .PCD v0.7 - Point Cloud Data file format
VERSION 0.7
FIELDS x y z
SIZE 4 4 4
TYPE F F F
COUNT 1 1 1
WIDTH 324
HEIGHT 1
VIEWPOINT 0 0 0 1 0 0 0
POINTS 324
DATA ascii
-0.0067705214 0.18684202 -0.40008527
-0.031674374 0.26842737 -0.40192345
0.016278606 0.26989454 -0.40176189
-0.034506004 0.32714048 -0.40251485
0.017410122 0.3270703 -0.40235326
-0.03726057 -0.21295351 -0.30500412
0.025383905 -0.21278554 -0.3040528
-0.12615788 -0.13337475 -0.31065521
-0.048180558 -0.14837763 -0.32115614
0.046773136 -0.14530222 -0.31790319
0.11450528 -0.12225291 -0.30690959
-0.20762287 -0.019964376 -0.30508164
-0.14620078 -0.046293821 -0.32375979
-0.049695801 -0.048961174 -0.34359977
0.050183978 -0.048432209 -0.33935413
0.13317883 -0.043268058 -0.31760439
-0.21895474 0.058557019 -0.31277078
-0.14871302 0.051575389 -0.34087521
-0.049099166 0.050339136 -0.36340201
0.050844342 0.050669976 -0.35840449
0.1468038 0.052474998 -0.3290973
0.20706001 0.077780664 -0.30469555
-0.2288934 0.1538609 -0.3201704
-0.15060307 0.15064973 -0.35305452
-0.049297687 0.1506789 -0.37725332
0.050904851 0.15063825 -0.37249401
0.14854839 0.15058056 -0.34118363
0.21370357 0.15746297 -0.3107444
-0.2344458 0.25257635 -0.32432523
-0.15131351 0.25056398 -0.36121961
-0.051320974 0.24931176 -0.38346457
0.052147899 0.25012323 -0.37956521
0.14956389 0.25054464 -0.34863088
0.21959826 0.25277904 -0.31565875
-0.23403107 0.33360043 -0.32424122
-0.15100974 0.334115 -0.36193022
-0.052816648 0.33513889 -0.38341665
0.052772619 0.33460584 -0.37990418
0.15091962 0.33400345 -0.34786505
0.22103602 0.33252665 -0.31530988
-0.20250459 -0.3028886 -0.20217808
-0.13837394 -0.32646954 -0.22404891
-0.048189186 -0.3336252 -0.24054341
0.047799964 -0.33232349 -0.23686135
0.12513658 -0.32280907 -0.2176711
-0.21705209 -0.23307325 -0.21650589
-0.15091637 -0.2499418 -0.25121579
-0.052168738 -0.2555978 -0.27986532
0.053264122 -0.25293535 -0.27484748
0.14568388 -0.24627627 -0.23706019
0.20589855 -0.2148903 -0.20770253
-0.23508725 -0.14489993 -0.23446481
-0.16185205 -0.15740439 -0.27621847
-0.056761377 -0.16060546 -0.28730562
0.066416554 -0.16551526 -0.28636026
0.15503435 -0.1529133 -0.26423803
0.21986784 -0.14010948 -0.22197999
-0.30581993 -0.021269143 -0.20830615
-0.25061989 -0.049585301 -0.25074467
-0.1717971 -0.063407324 -0.28470674
-0.08895763 -0.089773528 -0.29587269
0.079739377 -0.076107502 -0.29321489
0.1706962 -0.056963302 -0.27893719
0.23481946 -0.045093555 -0.23810515
-0.31382564 0.057100821 -0.21987034
-0.26211929 0.048240378 -0.26306599
-0.1821001 0.037364669 -0.29076189
0.17711198 0.040387705 -0.28454059
0.24825951 0.051650111 -0.24897936
0.30216634 0.086489663 -0.20478249
-0.32107711 0.15329286 -0.22978802
-0.26900974 0.14827009 -0.27049935
-0.1934427 0.12783691 -0.29765585
0.18469192 0.14294907 -0.28939712
0.25799885 0.14940089 -0.25523973
0.30659121 0.16165358 -0.21047743
-0.32559717 0.25143287 -0.23473658
-0.27352127 0.2490927 -0.27519897
0.19003136 0.24667209 -0.29324883
0.26145583 0.25012323 -0.26054835
0.31099841 0.25373706 -0.21646248
-0.32555217 0.33338222 -0.23463358
-0.27471232 0.33491158 -0.27506536
0.193519 0.33241448 -0.2946659
0.26214817 0.33479783 -0.25982755
0.31200504 0.33132622 -0.21791959
-0.22704785 -0.32704565 -0.1384462
-0.15146603 -0.34423921 -0.15162788
-0.04948356 -0.34585279 -0.15025082
0.050130945 -0.34588289 -0.15042259
0.15138422 -0.33939317 -0.15047655
0.21255171 -0.32032365 -0.12314302
-0.30251658 -0.20685358 -0.10856213
-0.2549054 -0.24987574 -0.15160015
-0.18370229 -0.26914576 -0.18389504
0.099194869 -0.29649192 -0.19974579
0.1825581 -0.26985526 -0.17923531
0.22995384 -0.24546228 -0.14484662
-0.31312832 -0.13767761 -0.12926613
-0.27651769 -0.15740705 -0.16608426
-0.19367245 -0.19915277 -0.19821711
0.18979752 -0.17619871 -0.18804695
0.25886592 -0.15008146 -0.15161455
0.30160454 -0.10886604 -0.1112802
-0.32765862 -0.046399266 -0.14679654
-0.28527257 -0.06416183 -0.17523731
0.27744213 -0.055508871 -0.16378313
0.31046793 -0.037513155 -0.12554662
-0.34461796 0.051131833 -0.14990683
-0.29157946 0.038617909 -0.18632159
0.28409132 0.041564092 -0.17163578
0.31987214 0.054230873 -0.14409922
-0.35753706 0.15044421 -0.15151601
-0.29734272 0.11989968 -0.19533043
0.28751123 0.14746472 -0.17570911
0.32977602 0.15122457 -0.14814018
-0.40154168 0.28607684 -0.10286114
-0.36629555 0.25039756 -0.15104586
0.29122636 0.24882491 -0.18516426
0.3364647 0.25152013 -0.14899629
-0.40117133 0.32493988 -0.10534023
-0.36610305 0.33401754 -0.15172157
0.29296848 0.32889393 -0.18888728
0.3361997 0.33456796 -0.14858174
-0.24527526 -0.33539391 -0.048341095
-0.15013735 -0.34617764 -0.050374929
-0.049314175 -0.34526378 -0.050682783
0.050305124 -0.34575224 -0.050327189
0.15000062 -0.34612316 -0.050164152
0.22671811 -0.32982907 -0.047795039
-0.30905867 -0.22452334 -0.041142631
-0.28340748 -0.26386809 -0.055771157
0.25958827 -0.24977814 -0.050708424
-0.32863426 -0.1479684 -0.049597982
-0.28961831 -0.16868694 -0.058854654
0.28387639 -0.16328745 -0.056500528
0.30881855 -0.12640366 -0.040722281
-0.35238534 -0.049004756 -0.05058603
-0.29835296 -0.09163174 -0.095747076
0.28957993 -0.060766254 -0.056193877
0.33836013 -0.058282953 -0.044861119
0.45080736 -0.050676987 -0.023470387
0.5089944 -0.012235826 -0.017214062
-0.37187943 0.050952964 -0.050566103
0.29589334 0.018496417 -0.084399648
0.33849925 0.051827364 -0.051351469
0.48707217 0.027715422 -0.019008305
0.52958947 0.052560445 -0.024028379
-0.40276021 0.17546308 -0.029067168
-0.38349256 0.14748196 -0.052921571
0.35203353 0.15099195 -0.05113041
0.49826983 0.15185896 -0.0087175043
0.54227513 0.15084788 -0.023812301
-0.40529889 0.25529122 -0.038934283
-0.38341632 0.24693945 -0.060907364
0.36083451 0.25057113 -0.052935146
0.45763874 0.27642149 -0.025705554
0.5257026 0.24189936 -0.023076778
-0.40639094 0.32912856 -0.042544205
-0.38340244 0.33817819 -0.057528343
0.36119083 0.33453664 -0.049498335
0.44520181 0.30844995 -0.017622959
-0.24510986 -0.33541465 0.047784034
-0.15012898 -0.3461535 0.049389325
-0.049267147 -0.345135 0.04959251
0.050338767 -0.34577662 0.049757674
0.15026559 -0.34610552 0.049339056
0.22681534 -0.3299416 0.047123466
-0.30893627 -0.22504012 0.040660631
-0.28329903 -0.26387599 0.055351067
0.19662303 -0.28909552 0.091005571
0.25961679 -0.24985738 0.0500414
-0.32844844 -0.14838895 0.04935224
-0.28985235 -0.16725361 0.056843467
0.28414705 -0.16287677 0.055828895
0.31067654 -0.12466997 0.037115566
-0.35220441 -0.049630847 0.050180268
-0.29745016 -0.098610938 0.099130005
0.28886509 -0.060300723 0.056835659
0.33954293 -0.059710406 0.044546098
0.44938388 -0.049630959 0.026171427
0.50896734 -0.01242818 0.017885892
-0.37175894 0.051095735 0.050206561
0.2965492 0.01720183 0.083279625
0.33730549 0.051755715 0.051420718
0.48561707 0.033504553 0.026147768
0.52917117 0.053798456 0.026178008
-0.4027544 0.17404947 0.027743133
-0.38339922 0.1471128 0.052581251
0.35055217 0.15095681 0.051146045
0.49866274 0.16777445 0.0092057465
0.53800094 0.15066145 0.026540332
-0.40529644 0.25543654 0.037980124
-0.38336316 0.24638581 0.06053767
0.35992709 0.25087214 0.053413134
0.45895475 0.27181005 0.029292649
0.52542275 0.24269694 0.02443492
-0.40657026 0.3290689 0.041583974
-0.38362113 0.33826375 0.056612853
0.36143735 0.33438084 0.049211595
0.44504797 0.30896893 0.018963531
-0.22714587 -0.32701969 0.13805962
-0.15171535 -0.34423786 0.15159674
-0.049467217 -0.34582806 0.15028751
0.050184187 -0.34585267 0.15034604
0.15129052 -0.33947718 0.15043841
0.21283263 -0.31999868 0.12269035
-0.30328071 -0.20859267 0.10692018
-0.2549679 -0.24962407 0.15165228
-0.18352582 -0.27106509 0.18499599
0.18166034 -0.26952431 0.17956433
0.22988537 -0.24527216 0.14509465
-0.31301063 -0.13737033 0.12956309
-0.27700716 -0.15753341 0.1658816
0.18802606 -0.17476629 0.19062969
0.25872672 -0.15014486 0.15131283
0.30255651 -0.10887815 0.10609809
-0.32759684 -0.046624426 0.14677623
-0.28506154 -0.064244464 0.17641504
0.27716291 -0.055291306 0.16362016
0.30970645 -0.037123825 0.1256745
-0.34458697 0.051044032 0.14988881
-0.291655 0.03712371 0.18559283
0.28452283 0.042370446 0.17137334
0.31910232 0.054182868 0.14348289
-0.35771638 0.15050882 0.15086138
-0.29724228 0.11292074 0.19515499
0.28715771 0.14551657 0.17618585
0.32892871 0.15124902 0.14789945
-0.40095621 0.27943012 0.10504732
-0.36625558 0.25056142 0.15096875
0.2913686 0.24645647 0.18402123
0.33566126 0.25181186 0.14896724
-0.40123951 0.32954034 0.10568975
-0.36602435 0.33408952 0.15170546
0.29322493 0.3322739 0.18875197
0.33558634 0.33460802 0.14913052
-0.20185496 -0.30166659 0.20417099
-0.13833919 -0.32624021 0.22394446
-0.047982376 -0.3335582 0.24046372
0.047902089 -0.33242044 0.23686846
0.12534969 -0.32249358 0.21766253
-0.21686891 -0.23369473 0.21638213
-0.15064192 -0.24944092 0.25150716
-0.051649012 -0.25581282 0.2797696
0.053721443 -0.25256953 0.27487543
0.14564638 -0.24611443 0.23708035
0.2062104 -0.21297583 0.20713653
-0.23513341 -0.14506829 0.23433436
-0.16196713 -0.15673609 0.27630064
-0.057768289 -0.16078562 0.28720474
0.065528877 -0.16458328 0.28632018
0.15562686 -0.15246752 0.26385668
0.21997322 -0.14059901 0.22165379
-0.30585021 -0.020704431 0.20848474
-0.25041667 -0.049385704 0.25096226
-0.17317361 -0.063514717 0.28495854
-0.068872072 -0.088082351 0.29730713
0.081245609 -0.074093729 0.29330754
0.17045976 -0.057125166 0.27860582
0.23452292 -0.045445014 0.23809001
-0.3142224 0.057302766 0.2193417
-0.26241687 0.048558153 0.2628713
-0.18347958 0.039541878 0.29121643
0.17673466 0.040009003 0.2849015
0.24793653 0.051514301 0.2490364
0.30368564 0.086644903 0.20333567
-0.32160887 0.15335897 0.22928311
-0.26940316 0.14833684 0.27023271
-0.19568045 0.12435234 0.29617974
0.18506561 0.14440526 0.28918096
0.25762007 0.14959918 0.25547639
0.30666742 0.1613017 0.20994495
-0.3253493 0.25192523 0.23512118
-0.27333102 0.24870434 0.27459142
0.19072703 0.2409583 0.29321164
0.26162833 0.25031081 0.26043475
0.31101647 0.25279081 0.21666369
-0.32555073 0.33339792 0.23482455
-0.27470401 0.33471948 0.2753382
0.19424982 0.32798696 0.29419065
0.26192215 0.33459407 0.26006252
0.31158748 0.33112988 0.21830462
-0.10480018 -0.20169586 0.30204663
-0.038062938 -0.21391286 0.30469206
0.023157192 -0.21240146 0.30437571
-0.12663922 -0.13267368 0.31066006
-0.048478387 -0.14844766 0.32111359
0.047204882 -0.14581682 0.31770501
0.11480654 -0.12235031 0.30678737
-0.20742841 -0.016529836 0.30533072
-0.14604121 -0.046772126 0.32355633
-0.049863487 -0.048804462 0.34358805
0.050134543 -0.048525117 0.33929101
0.13406897 -0.042650394 0.31728444
-0.21862102 0.058998663 0.31289232
-0.14910628 0.05104031 0.34046111
-0.049529511 0.050585728 0.36328256
0.050817277 0.050544832 0.35844815
0.14670166 0.052797198 0.3290737
0.20622417 0.074280247 0.30488694
-0.22870299 0.15382534 0.32035378
-0.15043782 0.1506073 0.3530699
-0.049767949 0.15055996 0.37717897
0.050705198 0.15064181 0.37235564
0.14845428 0.15072785 0.34117261
0.21316414 0.15717995 0.31090957
-0.23451133 0.25192526 0.32430544
-0.15105748 0.25066349 0.36118048
-0.051828355 0.24946448 0.38356128
0.051896118 0.2500672 0.37955773
0.14993744 0.25069252 0.34816846
0.21967742 0.25300699 0.31558955
-0.2338444 0.33354205 0.32441822
-0.15070094 0.33409044 0.36196983
-0.052028049 0.33488944 0.38325623
0.053124461 0.3345814 0.37980023
0.15080296 0.33410278 0.34778675
0.22052319 0.33331043 0.31566593
-0.032054588 0.19074765 0.40031284
-0.030857446 0.26708269 0.40204871
0.016748132 0.27254125 0.4017449
-0.032915168 0.32781601 0.40261409
0.020483317 0.32791334 0.4021416
