# .PCD v0.7 - Point Cloud Data file format
VERSION 0.7
FIELDS x y z
SIZE 4 4 4
TYPE F F F
COUNT 1 1 1
WIDTH 842
HEIGHT 1
VIEWPOINT 0 0 0 1 0 0 0
POINTS 842
DATA ascii
-0.048818935 -0.50689548 -0.50326329
0.018646622 -0.50826734 -0.50240499
-0.11637513 -0.44620374 -0.50121081
-0.042340841 -0.44951728 -0.50430697
0.029189281 -0.45270917 -0.5034771
-0.10893726 -0.36953071 -0.50207394
-0.04232714 -0.36891022 -0.50433975
0.028736379 -0.37065658 -0.50377047
-0.11237132 -0.24298616 -0.50127143
-0.045180973 -0.244085 -0.50431609
0.029156072 -0.24678439 -0.50364882
-0.11122128 -0.15016612 -0.50165325
-0.042972378 -0.14925778 -0.50437641
0.026922179 -0.15196899 -0.50386071
-0.11636564 -0.043051738 -0.50141758
-0.043264754 -0.051064014 -0.50439787
0.029065188 -0.052426167 -0.50361943
-0.11671864 0.04613008 -0.50151145
-0.042832285 0.049545597 -0.50451624
0.028315801 0.050790302 -0.50394565
-0.11165658 0.14966789 -0.50164115
-0.043228202 0.15012343 -0.50454742
0.027017368 0.15264773 -0.50404102
-0.11294989 0.24753462 -0.5014239
-0.045893706 0.25014102 -0.50429988
0.026746267 0.25270337 -0.5042541
-0.10941096 0.344129 -0.5018304
-0.043499239 0.34121066 -0.50450897
0.028586823 0.34093416 -0.50375217
-0.1183918 0.45884651 -0.50098932
-0.042645227 0.462304 -0.50444317
0.028574795 0.46500012 -0.50340402
-0.11337447 0.549263 -0.50120687
-0.04262213 0.54923284 -0.50460702
0.029504703 0.55030102 -0.50345862
-0.11365005 0.62352985 -0.50136799
-0.043270856 0.62806481 -0.50420928
0.027313069 0.62672979 -0.50346476
-0.31081763 -0.51137412 -0.4082118
-0.24382079 -0.51904017 -0.42900598
-0.14775544 -0.51988637 -0.44752944
-0.049151238 -0.52003473 -0.45311117
0.049917948 -0.52001595 -0.45195869
0.14640492 -0.51997846 -0.43936232
0.22920908 -0.51641339 -0.418116
-0.31387952 -0.449635 -0.41124734
-0.2503792 -0.44978207 -0.4448868
-0.15103053 -0.45083722 -0.4787122
-0.05187631 -0.45230764 -0.48739681
0.056040853 -0.45094711 -0.48529118
0.14975008 -0.44981939 -0.46502155
0.23931694 -0.45032504 -0.42443514
-0.31488708 -0.3665674 -0.40987039
-0.24890858 -0.35293365 -0.4387053
-0.15067206 -0.35178581 -0.47384894
-0.050417546 -0.34586537 -0.48451447
0.054488856 -0.34881061 -0.48180017
0.14995755 -0.35136455 -0.45806229
0.23485628 -0.35916319 -0.42244181
-0.31443802 -0.24664837 -0.4101674
-0.24975741 -0.25148851 -0.44328025
-0.15209828 -0.25041452 -0.47783914
-0.052466054 -0.2543956 -0.48848376
0.055304695 -0.25258097 -0.48572308
0.14935406 -0.25036746 -0.46349591
0.23679027 -0.25002795 -0.42409411
-0.31469086 -0.15150297 -0.41093668
-0.2502293 -0.15070507 -0.44449559
-0.15256347 -0.1499496 -0.478973
-0.053407926 -0.15082265 -0.48944825
0.056810815 -0.15044519 -0.48704249
0.15019666 -0.14974296 -0.46419144
0.23734185 -0.1506837 -0.42524543
-0.31404915 -0.050057229 -0.41144645
-0.25035542 -0.051245224 -0.44393349
-0.15122841 -0.05042265 -0.47876626
-0.05172126 -0.050417598 -0.48852471
0.056672871 -0.050690345 -0.48598367
0.14975309 -0.050423402 -0.46428055
0.23898846 -0.050430056 -0.42439592
-0.3144677 0.049382489 -0.41120356
-0.2501857 0.0499883 -0.44376269
-0.15155478 0.050007556 -0.47689664
-0.051311746 0.049785428 -0.48662233
0.056743585 0.049815182 -0.48475328
0.14932287 0.049747501 -0.46312442
0.23885049 0.049411498 -0.42442167
-0.31427118 0.15134485 -0.41126287
-0.24933954 0.15057722 -0.44325921
-0.1525562 0.15071644 -0.47516617
-0.052424949 0.15091774 -0.48593238
0.057076842 0.15069567 -0.48278716
0.15014677 0.14982963 -0.46139166
0.23739378 0.15101354 -0.42524171
-0.31434777 0.2500028 -0.41039857
-0.24832904 0.25079983 -0.44333938
-0.15189929 0.24951041 -0.47381747
-0.052303854 0.2506884 -0.48340952
0.054633368 0.24969192 -0.48226881
0.14762527 0.2497654 -0.46059719
0.23728479 0.2506634 -0.4251394
-0.3143591 0.34324625 -0.40988019
-0.24792227 0.34996068 -0.43997344
-0.15067841 0.35071495 -0.46969166
-0.050406855 0.35370249 -0.48014101
0.054188579 0.35187462 -0.47746712
0.14885497 0.35088229 -0.45649078
0.23617136 0.34689927 -0.42383936
-0.31297493 0.46202445 -0.41118151
-0.24705139 0.45156112 -0.43773547
-0.15126511 0.45134696 -0.46642783
-0.050766215 0.44881216 -0.47706035
0.05437297 0.45077917 -0.47456366
0.14936411 0.45163271 -0.45278892
0.2365126 0.45600739 -0.42277756
-0.31407002 0.54898298 -0.41102996
-0.24776137 0.55018789 -0.44065458
-0.15122464 0.55078173 -0.46800786
-0.051254667 0.55078727 -0.47674498
0.054059036 0.55125386 -0.47477019
0.14814749 0.54955614 -0.45541805
0.23825027 0.54985678 -0.42451838
-0.31410581 0.63148749 -0.41008064
-0.24557146 0.64227086 -0.43408719
-0.15110005 0.64352775 -0.46180192
-0.050552376 0.64565414 -0.47291425
0.052262995 0.64437842 -0.47011206
0.14921632 0.6431517 -0.44769418
0.23481582 0.63795501 -0.42162457
-0.41144136 -0.51265144 -0.31303588
-0.34578153 -0.52034897 -0.34413755
-0.25061175 -0.51721036 -0.34996793
-0.15135621 -0.5102092 -0.34969935
-0.049891237 -0.50735104 -0.35096997
0.05148663 -0.50846946 -0.35132444
0.1504629 -0.51331306 -0.3496137
0.2518169 -0.52030128 -0.3515321
0.32900393 -0.51796126 -0.33060381
-0.41419825 -0.44949719 -0.31737638
-0.36200181 -0.45064488 -0.36469257
-0.25086719 -0.46476603 -0.35101151
-0.15098995 -0.47803983 -0.35109591
-0.045359962 -0.4823209 -0.34382433
0.049618058 -0.48071638 -0.34772241
0.15205152 -0.47414511 -0.35348988
0.2747187 -0.45019749 -0.37643373
0.33844459 -0.45017585 -0.34162557
-0.41300774 -0.36524644 -0.31776088
-0.35808036 -0.34906852 -0.35832462
-0.27800518 -0.33170256 -0.38479805
0.1887355 -0.35282144 -0.38906446
0.27349463 -0.34153703 -0.37818101
0.33522883 -0.35606933 -0.33829007
-0.41315219 -0.24647589 -0.31805348
-0.3606033 -0.25246811 -0.36337933
-0.26917478 -0.25799417 -0.37923497
0.18193442 -0.24927926 -0.39037004
0.27787578 -0.25517008 -0.38155964
0.3376472 -0.24942726 -0.34076592
-0.41337848 -0.15037116 -0.31766963
-0.36105978 -0.14987461 -0.3652899
-0.26232225 -0.14903782 -0.37805584
0.18715562 -0.14789179 -0.39319977
0.27851444 -0.14949428 -0.38211742
0.3389048 -0.1495911 -0.34107378
-0.41436225 -0.051689975 -0.31710285
-0.36168936 -0.050855331 -0.36366445
-0.26292041 -0.045067102 -0.37879926
0.18260849 -0.03326606 -0.39210671
0.27825886 -0.050314482 -0.37941056
0.33831355 -0.050462756 -0.34131864
-0.41431108 0.05033407 -0.31724951
-0.36079139 0.049296375 -0.36278188
-0.2661415 0.051758025 -0.37774032
0.18741766 0.050405692 -0.39246237
0.2747798 0.050088905 -0.37664014
0.33801839 0.049126249 -0.34125975
-0.41341224 0.15083294 -0.31763083
-0.35881558 0.15038703 -0.36297053
-0.26463169 0.15275827 -0.37810802
0.1837175 0.148632 -0.39260718
0.27265704 0.1503994 -0.37670901
0.33813536 0.14993568 -0.3407746
-0.41345558 0.24890289 -0.31833088
-0.35862589 0.25067738 -0.36106017
-0.26553315 0.25259203 -0.37884536
0.18728805 0.24770167 -0.39159042
0.27024812 0.25027615 -0.37325379
0.33758947 0.2494781 -0.34113926
-0.41340777 0.34293193 -0.31766272
-0.35677251 0.3521091 -0.35852548
-0.26709843 0.35647896 -0.37957484
0.18295777 0.35322443 -0.39281762
0.26869178 0.35494 -0.37230623
0.33591652 0.34832293 -0.33928472
-0.41327032 0.45972618 -0.31658944
-0.35468423 0.44991189 -0.35573676
-0.26698992 0.45028144 -0.37980843
0.18580556 0.45142314 -0.3914471
0.26640689 0.44619736 -0.36882955
0.3350639 0.45366549 -0.33721799
-0.41420838 0.55126184 -0.31694397
-0.35628456 0.55066973 -0.35712934
-0.2662268 0.55234188 -0.37790245
0.18543567 0.54986668 -0.39216715
0.26500654 0.55006361 -0.36736992
0.33660489 0.55045646 -0.3405318
-0.41270667 0.63268375 -0.31570506
-0.35127115 0.64511377 -0.35310286
-0.269135 0.64578992 -0.38192239
0.18527481 0.63894659 -0.39142147
0.26211536 0.64721632 -0.36720487
0.33230227 0.64073414 -0.33563823
-0.4360154 -0.51960552 -0.24335149
-0.3503128 -0.51618773 -0.25000772
-0.25496107 -0.50599897 -0.25449216
-0.16367945 -0.50209403 -0.27917939
-0.058904815 -0.50082517 -0.29397854
0.064177103 -0.5012989 -0.28890446
0.16078164 -0.50365043 -0.26497579
0.24986455 -0.51040792 -0.25095615
0.34995303 -0.52063596 -0.2501657
0.41315103 -0.51502293 -0.22509639
-0.45596641 -0.45041251 -0.25064874
-0.35331538 -0.46515059 -0.25282001
-0.2317096 -0.48935342 -0.23307319
-0.14499843 -0.49374318 -0.23898812
-0.048107322 -0.49316573 -0.24849194
0.048919026 -0.49355054 -0.24594513
0.13840109 -0.4934839 -0.2321067
0.25153407 -0.47810754 -0.25259635
0.3790023 -0.452059 -0.27431989
0.41819191 -0.45065823 -0.23165691
-0.44820252 -0.3522844 -0.25099641
-0.38451055 -0.33793265 -0.2796182
0.29812279 -0.36153346 -0.29718611
0.37776563 -0.3448697 -0.2679984
0.41669375 -0.36166686 -0.22926751
-0.45345905 -0.25095859 -0.25053531
-0.38121536 -0.25292706 -0.27395663
0.37938982 -0.2548278 -0.27375564
0.41711384 -0.24892057 -0.23196864
-0.45572749 -0.15016018 -0.2494446
-0.37794176 -0.14484687 -0.27512503
0.38000759 -0.14968318 -0.27541107
0.4181042 -0.15116605 -0.23185851
-0.45471987 -0.050702266 -0.25004914
-0.37939245 -0.044675853 -0.27226943
0.29801556 -0.043306053 -0.29625857
0.37897137 -0.05035796 -0.27395689
0.41786343 -0.051553212 -0.23279195
-0.45458359 0.04937477 -0.25003377
-0.38069391 0.052778445 -0.27113545
0.37770969 0.049294055 -0.27258942
0.41793871 0.049930848 -0.23264165
-0.45444328 0.15066431 -0.24876748
-0.38057336 0.1516272 -0.27183872
0.37555316 0.150727 -0.27257705
0.41802078 0.15103702 -0.23210116
-0.45268872 0.25039622 -0.24934861
-0.37805846 0.25275907 -0.27679834
0.2980997 0.24952951 -0.29771966
0.37366337 0.25145966 -0.27012888
0.41782284 0.25004387 -0.23293202
-0.44864604 0.35083812 -0.24929304
-0.38013908 0.35419708 -0.27480671
0.29513177 0.33893952 -0.29860488
0.37088481 0.35481915 -0.2666088
0.41677916 0.34651119 -0.23085921
-0.44646305 0.45259404 -0.24799095
-0.38072655 0.45013949 -0.27383906
0.29784721 0.4678854 -0.29828173
0.36826175 0.44733495 -0.26447287
0.41723481 0.4587175 -0.23000677
-0.45045838 0.55033463 -0.24678929
-0.38029003 0.55100977 -0.27425197
0.29704165 0.54803687 -0.29874831
0.36618897 0.55052936 -0.26644728
0.41746292 0.54970348 -0.23299293
-0.44332495 0.64256638 -0.2450363
-0.38257274 0.64545512 -0.27660519
0.29785132 0.63081264 -0.29726753
0.36541 0.64652538 -0.26125532
0.41609311 0.63499606 -0.22953574
-0.50706929 -0.51085103 -0.12392209
-0.4521938 -0.52024627 -0.14978252
-0.35019445 -0.50819242 -0.15096796
-0.28096861 -0.50171238 -0.17231148
0.19348311 -0.50043207 -0.19317189
0.26317254 -0.50428092 -0.15755711
0.34971586 -0.5153743 -0.14957118
0.43009603 -0.5198167 -0.14635146
-0.5095523 -0.44965446 -0.13156089
-0.48064309 -0.4509435 -0.17061082
-0.34764701 -0.48098689 -0.14555527
-0.24329817 -0.49351701 -0.14444987
-0.15003039 -0.48883283 -0.14996022
-0.049393106 -0.48627698 -0.15107779
0.050420269 -0.48720393 -0.1510108
0.1497725 -0.49154851 -0.14971478
0.23040205 -0.49243832 -0.13980754
0.35355535 -0.47101262 -0.15161668
0.45022506 -0.44967538 -0.14817579
-0.50905371 -0.36682779 -0.13182673
-0.48124093 -0.3424854 -0.16319123
0.389548 -0.34847176 -0.16992071
0.44263294 -0.35174599 -0.14965729
-0.50905371 -0.24668923 -0.13193646
-0.48467097 -0.25594163 -0.16864911
0.38735986 -0.2505624 -0.17107649
0.44713032 -0.25147146 -0.15039921
-0.5095998 -0.15040085 -0.13158078
-0.48481649 -0.14926201 -0.17099603
0.38714412 -0.14492388 -0.17261736
0.44903192 -0.14989521 -0.15050702
-0.50932193 -0.051566083 -0.13236833
-0.48287064 -0.049725559 -0.16984765
0.38859221 -0.047023799 -0.16998023
0.44851077 -0.050787468 -0.15006718
-0.50932086 0.049600646 -0.13232674
-0.48075509 0.048811022 -0.16842718
0.38963124 0.050139774 -0.1667777
0.44835103 0.049527522 -0.15009002
-0.50954473 0.15099502 -0.13155197
-0.47950357 0.14978679 -0.1682308
0.38851711 0.15144826 -0.17103866
0.44751248 0.15068443 -0.14948826
-0.50947791 0.24963188 -0.13171138
-0.4779768 0.25096047 -0.16779174
0.38851944 0.25302979 -0.16637392
0.44712126 0.25033873 -0.14944068
-0.50905156 0.34143656 -0.13200068
-0.47550011 0.35534242 -0.16317596
0.38895905 0.34969404 -0.16856787
0.44292921 0.35184669 -0.14924732
-0.50928885 0.46162736 -0.13079035
-0.47291034 0.44508219 -0.15978941
0.38852334 0.45202762 -0.17057577
0.44114271 0.45240343 -0.14713709
-0.50949633 0.55007851 -0.13185963
-0.4708502 0.55045009 -0.16154078
0.38798916 0.55198932 -0.16914086
0.44442531 0.55026174 -0.14750674
-0.50880784 0.63126945 -0.12951677
-0.46974182 0.6479615 -0.15681954
0.38838381 0.64137578 -0.17253794
0.4364548 0.64332092 -0.14600718
-0.51415211 -0.51644605 -0.047479343
-0.45002568 -0.5190025 -0.049289498
-0.35918516 -0.50531304 -0.050796643
0.28176525 -0.50230682 -0.056174356
0.34983003 -0.51135993 -0.049288724
0.44012898 -0.52053058 -0.047687743
-0.52252471 -0.45065722 -0.048481382
-0.44393063 -0.46063364 -0.046642888
-0.32700315 -0.49144542 -0.044400435
-0.25022605 -0.4913128 -0.049273275
-0.15101445 -0.48537123 -0.049756128
-0.049095646 -0.48269227 -0.049260374
0.050522592 -0.48364094 -0.049215112
0.15114345 -0.48802623 -0.049638294
0.23708385 -0.49338713 -0.047678344
0.35254797 -0.47790432 -0.046641916
0.46797299 -0.45014784 -0.049524922
-0.5185762 -0.35663706 -0.048627693
-0.4894729 -0.3252542 -0.060480841
0.46269891 -0.35175946 -0.050229445
-0.5207985 -0.25001955 -0.049951576
-0.4790149 -0.26659697 -0.054194383
0.46949014 -0.25684565 -0.053627316
0.55469519 -0.23139487 -0.031657554
0.65114391 -0.23927499 -0.032211378
0.74254924 -0.22742996 -0.028307719
0.8033759 -0.20554042 -0.012909048
-0.52238023 -0.14995568 -0.049705356
-0.47278666 -0.14614123 -0.050162733
0.47030365 -0.14778088 -0.053596538
0.54591572 -0.18130861 -0.024060048
0.65077579 -0.19153793 -0.019029878
0.76416075 -0.16377161 -0.033061881
0.8245194 -0.14274919 -0.027274365
-0.52236873 -0.05137774 -0.050423946
-0.47168466 -0.048438463 -0.048849955
0.46605241 -0.051595151 -0.049839918
0.78627175 -0.069295481 -0.020404035
0.8435576 -0.049489852 -0.030841036
-0.52232975 0.049102232 -0.050604843
-0.47259888 0.055647042 -0.049059805
0.46482378 0.05005594 -0.050582625
0.78942156 0.048683226 -0.015237867
0.85312229 0.048542246 -0.030530758
-0.52232707 0.14981204 -0.049551006
-0.47222993 0.15410483 -0.048723266
0.46301022 0.15059401 -0.050259795
0.78532755 0.16743639 -0.014837103
0.84481061 0.14845285 -0.031235898
-0.52214056 0.25025252 -0.050713155
-0.471966 0.25320199 -0.050026156
0.46441594 0.24735451 -0.054852419
0.53395671 0.27793556 -0.023776093
0.77367693 0.26066488 -0.031576674
0.82787353 0.2441726 -0.028508207
-0.5203746 0.34835175 -0.049189955
-0.47557098 0.35890326 -0.05436606
0.45860529 0.35383871 -0.053505342
0.55941814 0.33636609 -0.03121601
0.65043885 0.35767466 -0.02902195
0.74728978 0.34607238 -0.030059423
0.80775642 0.31298494 -0.01507509
-0.51925629 0.45435917 -0.047398508
-0.47715479 0.4439376 -0.052066773
0.45453572 0.45183307 -0.049952038
-0.52213895 0.55072618 -0.049769655
-0.47246611 0.55145454 -0.048309986
0.45615754 0.55075788 -0.050859772
-0.51872849 0.63854098 -0.048764698
-0.47900084 0.65092766 -0.051230401
0.45024058 0.64352989 -0.050121605
-0.51412177 -0.51609707 0.048642982
-0.44974858 -0.51898575 0.050399505
-0.35917848 -0.5053401 0.052208077
-0.29698706 -0.50040221 0.098334283
0.28155047 -0.50221449 0.056962132
0.34995428 -0.51140058 0.050660696
0.4401961 -0.52032524 0.048723508
-0.52221113 -0.45027232 0.049431883
-0.44625571 -0.46079189 0.051163111
-0.32624283 -0.49134061 0.044711992
-0.24957602 -0.49127734 0.050975986
-0.15037397 -0.4853783 0.051317949
-0.049231328 -0.48270395 0.050401423
0.050424948 -0.4836652 0.050498944
0.15025416 -0.48798737 0.050761215
0.23656453 -0.49341786 0.048105199
0.35263279 -0.47754684 0.051139299
0.46805274 -0.45075735 0.049931325
-0.51814646 -0.35766518 0.049060766
-0.48906207 -0.32605255 0.058678653
0.39974129 -0.35203207 0.096547231
0.46215016 -0.35255504 0.050770514
-0.52106726 -0.25003287 0.049500089
-0.48002976 -0.26304528 0.053589407
0.46880382 -0.2563107 0.055248946
0.55341846 -0.23352006 0.039021097
0.65171158 -0.24089944 0.03756199
0.74470431 -0.22778328 0.030492874
0.80292875 -0.204548 0.0099998061
-0.52207905 -0.15064538 0.05141947
-0.47159901 -0.14537461 0.047600862
0.46993193 -0.14818941 0.054021284
0.54615825 -0.18033279 0.029319029
0.65039015 -0.19037949 0.023703089
0.75928909 -0.15983555 0.03986815
0.82457441 -0.14414068 0.028836189
-0.52209705 -0.051316559 0.050584897
-0.47372666 -0.051318109 0.047928493
0.4649238 -0.051744118 0.050149851
0.78479612 -0.060169056 0.02842205
0.84261537 -0.049431801 0.036143243
-0.5220136 0.049041625 0.050569668
-0.47215259 0.052915297 0.052083325
0.46420014 0.049849939 0.049575061
0.79319417 0.050443426 0.021223661
0.84965295 0.048569098 0.035872616
-0.5219844 0.15034011 0.05154844
-0.47251514 0.15255679 0.049688604
0.46247643 0.15094881 0.050763357
0.78669536 0.15792969 0.028266061
0.84396124 0.14857593 0.035680387
-0.52234519 0.2502493 0.049712431
-0.47259608 0.25173578 0.051364712
0.46376619 0.24699949 0.055389136
0.53422666 0.27808732 0.027236318
0.76772237 0.25745773 0.038907409
0.82730705 0.24568433 0.031394288
-0.52002597 0.34799948 0.049997289
-0.47494516 0.36044386 0.05334387
0.45817924 0.35407206 0.053696852
0.55723047 0.33938444 0.037892923
0.65024596 0.35725534 0.033603258
0.74628198 0.34597182 0.033804636
0.80878288 0.31153572 0.018059233
-0.51899028 0.45365834 0.049061961
-0.47762147 0.44202036 0.051585969
0.45391744 0.45297369 0.050217763
-0.52231097 0.55018586 0.049760833
-0.47210428 0.55233854 0.051453736
0.45664755 0.55027062 0.049281444
-0.51873869 0.6377781 0.047946308
-0.47884011 0.65077043 0.052387275
0.45052463 0.6428228 0.050053537
-0.50769603 -0.51113141 0.12481923
-0.45226663 -0.52038264 0.15007776
-0.35048258 -0.50815743 0.15055998
-0.28127441 -0.50171059 0.17275283
0.19497159 -0.50053596 0.19316947
0.26364708 -0.50430208 0.15653224
0.35027397 -0.51550573 0.15000489
0.43070206 -0.51968604 0.14608227
-0.50966835 -0.44997382 0.13019808
-0.48181793 -0.45185581 0.17116365
-0.34678379 -0.48142105 0.14428161
-0.24342889 -0.49355209 0.14499167
-0.15033057 -0.48881027 0.15009855
-0.049133409 -0.48630032 0.15123664
0.050911449 -0.48718381 0.15067954
0.14975655 -0.49158385 0.14969908
0.2298335 -0.49249989 0.13975407
0.35436976 -0.46792188 0.15031415
0.44949245 -0.44936088 0.14984822
-0.50948691 -0.36646956 0.12972139
-0.48251003 -0.34408817 0.16288987
0.38769424 -0.3456341 0.16812302
0.44170475 -0.35181099 0.15030637
-0.50908673 -0.24703623 0.13167042
-0.48501816 -0.25430042 0.16867465
0.38882795 -0.24967502 0.16257134
0.44576108 -0.25144377 0.15103966
-0.50921297 -0.14999545 0.13259479
-0.48504627 -0.14932276 0.17056009
0.38837516 -0.14487725 0.17280807
0.44718498 -0.15022016 0.15094954
-0.50924081 -0.050795872 0.13281244
-0.4831695 -0.049178433 0.16974558
0.38841459 -0.046843946 0.16816126
0.44755304 -0.051363897 0.14973873
-0.50914657 0.048958927 0.13283251
-0.48096931 0.049799159 0.16878621
0.38755119 0.05380246 0.17123505
0.44707733 0.049060471 0.14896338
-0.50911081 0.15017369 0.13243686
-0.48025054 0.15091182 0.16833
0.38809279 0.15375733 0.1684915
0.44638219 0.1501573 0.14977424
-0.50904089 0.25015512 0.13261957
-0.47851712 0.25039622 0.16847569
0.38943809 0.25253561 0.16744615
0.44556659 0.25000799 0.15019353
-0.50902939 0.34184483 0.13057984
-0.47524261 0.35506007 0.16289644
0.38812545 0.35207748 0.16912338
0.44130179 0.35163414 0.14868566
-0.5091843 0.46130985 0.13017792
-0.47332221 0.44654435 0.16047616
0.38770333 0.45028892 0.16997616
0.44002041 0.45270738 0.14795031
-0.50931042 0.54994214 0.13052979
-0.47031182 0.55023921 0.16378254
0.38805309 0.55077499 0.1678251
0.44332185 0.55047172 0.1478404
-0.50847101 0.63148487 0.12977883
-0.46950263 0.64704716 0.15733323
0.38876587 0.64039701 0.17201225
0.43615404 0.64374185 0.14660794
-0.43563753 -0.51969355 0.24317072
-0.35039264 -0.5162012 0.24988428
-0.25483823 -0.50600255 0.25431952
-0.16224073 -0.50216848 0.28080246
-0.054608461 -0.5007323 0.29357985
0.065433256 -0.50120658 0.28780198
0.15978235 -0.50362009 0.26523325
0.25049022 -0.51046133 0.25042313
0.35050088 -0.52063572 0.25056592
0.41315803 -0.514759 0.22472502
-0.45550871 -0.450234 0.25085956
-0.35122809 -0.46541864 0.25426736
-0.23294429 -0.48949248 0.23255108
-0.14568156 -0.49376538 0.23854235
-0.048417605 -0.49317497 0.24874932
0.048312437 -0.49353606 0.24567008
0.13827989 -0.49350518 0.23178886
0.25202456 -0.47791004 0.25226042
0.37903577 -0.45132175 0.27471623
0.41757646 -0.45005 0.23201713
-0.44860247 -0.35195303 0.24983659
-0.38364238 -0.33663496 0.28214863
0.29732174 -0.37752771 0.29943985
0.37747461 -0.34422871 0.26770115
0.41587707 -0.36209285 0.22941108
-0.45350936 -0.25168172 0.25004286
-0.38147038 -0.24704435 0.27231294
0.37999359 -0.25420624 0.27267489
0.41700596 -0.24846792 0.23116781
-0.45578441 -0.14998293 0.2488544
-0.37973723 -0.14878973 0.27275437
0.29849985 -0.12253481 0.29952595
0.37954026 -0.14976929 0.27498174
0.41703817 -0.15032454 0.23276034
-0.45516089 -0.050891448 0.24927872
-0.38104954 -0.048980411 0.27309555
0.2983706 -0.055538058 0.29948768
0.37837243 -0.050091401 0.27328667
0.41668555 -0.051156413 0.23350257
-0.45443183 0.049787227 0.24889508
-0.38179606 0.052081645 0.27459338
0.29902819 0.02562505 0.29357538
0.37656295 0.050450351 0.27176175
0.41685304 0.049411692 0.23246433
-0.4542774 0.15005757 0.24841768
-0.38030353 0.1520538 0.27416217
0.29792643 0.15798885 0.2979486
0.37506104 0.15142174 0.27197817
0.41726032 0.15096682 0.23234102
-0.45310584 0.25054008 0.24912775
-0.3804543 0.25421664 0.2734817
0.29925841 0.21699494 0.299528
0.37327811 0.24992438 0.27057883
0.41720945 0.25084355 0.23227669
-0.44974408 0.35067475 0.24779654
-0.37991393 0.35348365 0.2751767
0.29559034 0.34870246 0.29878128
0.37068135 0.35450816 0.26635003
0.4163062 0.3469359 0.2310921
-0.44608575 0.45183903 0.24773225
-0.38055801 0.451125 0.27494127
0.29844972 0.45426631 0.29666758
0.36789003 0.44774064 0.2640909
0.41601938 0.45795357 0.22974466
-0.44971022 0.55053711 0.24732578
-0.37802082 0.5527063 0.27660963
0.29896483 0.54906738 0.29749104
0.36657783 0.55070192 0.26566327
0.41670847 0.54994291 0.2332533
-0.44301894 0.64292407 0.24496068
-0.38241175 0.64458644 0.27557218
0.29941094 0.63231909 0.2970967
0.36535183 0.64666253 0.26086378
0.41576669 0.63501704 0.23000473
-0.41081476 -0.51323348 0.31084231
-0.34607196 -0.52048165 0.34402904
-0.25028065 -0.51717228 0.3499949
-0.15129955 -0.51020104 0.34960839
-0.05060387 -0.50750303 0.35188553
0.050766375 -0.50833815 0.35035628
0.15009646 -0.51324439 0.3491579
0.25158843 -0.52032107 0.35059312
0.32890379 -0.51791328 0.3315413
-0.41326511 -0.45007482 0.31804371
-0.3608312 -0.45041928 0.36580181
-0.25096166 -0.46461123 0.3513357
-0.1483373 -0.47852284 0.3497169
-0.045717619 -0.48303863 0.34266672
0.050750185 -0.48025653 0.3482267
0.15216982 -0.47362101 0.35416871
0.27506593 -0.45097676 0.37622818
0.33848065 -0.45024037 0.34123451
-0.41307116 -0.36582771 0.3176432
-0.35741132 -0.34896424 0.35939431
-0.27826166 -0.33539444 0.38603652
0.18068916 -0.344717 0.39451611
0.27387118 -0.34218162 0.3782779
0.33495647 -0.35638162 0.33782899
-0.41402376 -0.24688978 0.31630412
-0.3606109 -0.25175679 0.36330119
-0.26951274 -0.25565022 0.37961751
0.1839316 -0.24733782 0.39170921
0.27868724 -0.25473309 0.38058034
0.33804819 -0.24947312 0.33967364
-0.41420838 -0.15025623 0.31669804
-0.36214781 -0.14972329 0.3645077
-0.26734036 -0.1466347 0.37796217
0.17998059 -0.15130775 0.39219388
0.2780782 -0.14921393 0.38101575
0.33815667 -0.14960586 0.34154528
-0.41389561 -0.051075611 0.31706253
-0.36037835 -0.049971215 0.36516899
-0.26202312 -0.045238759 0.38117167
0.18415922 -0.049693491 0.39083639
0.27762499 -0.049920872 0.38016233
0.33844677 -0.050668795 0.3405157
-0.41420364 0.050015818 0.31670868
-0.35960111 0.049124569 0.36394483
-0.26521745 0.050863784 0.37882426
0.18345881 0.047865953 0.39189026
0.27490398 0.04954562 0.37702557
0.33821979 0.049462933 0.34101531
-0.41394302 0.15113516 0.31683674
-0.35967496 0.15019004 0.36248416
-0.26517695 0.15276985 0.3786819
0.18473808 0.15176496 0.39089733
0.27310595 0.15070581 0.37498188
0.33806255 0.14992276 0.34042886
-0.41419497 0.25005549 0.31709677
-0.35901329 0.24952899 0.36084232
-0.26477715 0.25188178 0.37954423
0.18514422 0.25100088 0.39083058
0.27116457 0.24997233 0.37227678
0.33808228 0.2504642 0.34015027
-0.41344786 0.34383091 0.31689635
-0.35608408 0.352276 0.35917667
-0.26568353 0.3559413 0.38020736
0.18509755 0.35125622 0.39104232
0.26929328 0.35463077 0.37219322
0.33622313 0.34832743 0.3386662
-0.41317463 0.46014559 0.31658763
-0.35395882 0.44955593 0.35610309
-0.26874968 0.45062166 0.37939209
0.18452765 0.44699785 0.39184058
0.26586244 0.44637865 0.36861518
0.33479074 0.45408884 0.33741051
-0.41414124 0.5502336 0.31677008
-0.35510063 0.55088538 0.35888389
-0.26590031 0.55329454 0.37821478
0.1845241 0.55051768 0.39127687
0.26527309 0.55008417 0.36767247
0.3369734 0.55056578 0.33990237
-0.41309479 0.63319707 0.31517446
-0.35184097 0.64528185 0.35200045
-0.27002639 0.64630312 0.38056144
0.1851311 0.63758868 0.39257461
0.26224548 0.64688849 0.36701512
0.33235872 0.64106822 0.33543628
-0.31267577 -0.51108122 0.40692362
-0.24422893 -0.51889724 0.42893597
-0.14768015 -0.5200659 0.44696006
-0.049750894 -0.51999331 0.45321316
0.049985856 -0.51996601 0.45158213
0.1465933 -0.52022225 0.43916532
0.22907451 -0.51654267 0.4181619
-0.3144398 -0.45200664 0.4101907
-0.2511324 -0.45012492 0.44452131
-0.15111513 -0.44994444 0.47887561
-0.051198762 -0.45146772 0.48767537
0.056830402 -0.45092541 0.48528945
0.14995618 -0.45004451 0.46489874
0.23784475 -0.45035359 0.42468274
-0.3146373 -0.36695638 0.41000533
-0.24874119 -0.35380059 0.4389433
-0.15071608 -0.35098565 0.4739159
-0.050134584 -0.34611577 0.48455286
0.053959388 -0.3488594 0.48158148
0.1507417 -0.35144511 0.45774126
0.23509899 -0.35897487 0.42235273
-0.31427094 -0.2473734 0.4105196
-0.24957563 -0.25184083 0.44283909
-0.15252469 -0.25003877 0.47790718
-0.052511126 -0.25491276 0.48897126
0.055387724 -0.25205639 0.48589337
0.14907213 -0.25102144 0.46318939
0.23676176 -0.24981083 0.42391875
-0.31547034 -0.15083325 0.4103066
-0.25095472 -0.15072078 0.4439348
-0.15256366 -0.15024902 0.47921336
-0.051978793 -0.15057552 0.48914105
0.057057712 -0.15039328 0.48707128
0.15062287 -0.15017313 0.46452355
0.23782252 -0.15076961 0.42496726
-0.31437352 -0.051376246 0.41018593
-0.25206995 -0.050233096 0.44336939
-0.1527431 -0.051379979 0.47816846
-0.053174157 -0.050771549 0.48852959
0.056607869 -0.050471794 0.48605761
0.15080357 -0.050228704 0.46348137
0.2380193 -0.050913434 0.42474857
-0.31425154 0.051274128 0.41013899
-0.25190824 0.049745478 0.44279453
-0.1528412 0.050093029 0.47676384
-0.053339683 0.049578734 0.48698825
0.056170348 0.049633492 0.48462674
0.15011199 0.049603179 0.46247509
0.23779665 0.049374525 0.42471617
-0.3150622 0.15088286 0.41055211
-0.24981098 0.15057731 0.44316721
-0.15279393 0.15072183 0.47502497
-0.05165476 0.15094398 0.48587391
0.05691272 0.15065607 0.48293647
0.15062863 0.15038902 0.46079415
0.23799683 0.1506442 0.42488426
-0.31459299 0.25145259 0.41065165
-0.24829672 0.25027797 0.44292814
-0.15213217 0.24944158 0.47425407
-0.052324358 0.25054902 0.48420617
0.056317914 0.2499593 0.48114192
0.14837928 0.25022349 0.46078098
0.23774366 0.250617 0.42462939
-0.31427598 0.34191883 0.40997991
-0.24789561 0.35002887 0.44007531
-0.15028262 0.35075217 0.47011298
-0.051068634 0.35359126 0.47972178
0.054118581 0.35163596 0.47737175
0.14865844 0.35085693 0.45614362
0.2362441 0.34708929 0.4238314
-0.31471291 0.46173927 0.40963602
-0.24760821 0.45190459 0.43761969
-0.15178253 0.45185998 0.46594167
-0.050737135 0.44839749 0.47706667
0.054756511 0.45111287 0.47455478
0.14940637 0.45152342 0.45250276
0.23520599 0.45620337 0.42295182
-0.3133558 0.55023491 0.41102895
-0.24753192 0.54982102 0.44090906
-0.15085998 0.55121589 0.4684529
-0.051066775 0.55089414 0.47629663
0.055413023 0.5510633 0.47448793
0.14899309 0.54988408 0.45470977
0.23761168 0.55027092 0.42472178
-0.31439647 0.63310653 0.4091675
-0.24528809 0.64216286 0.43393689
-0.15065917 0.64365631 0.46175957
-0.04944675 0.64569908 0.47318879
0.053215321 0.64398199 0.46999317
0.14877954 0.64387757 0.44750765
0.23394018 0.63776439 0.42209885
-0.10447037 -0.50743985 0.50002921
-0.03826331 -0.50884873 0.50261569
0.024333503 -0.50500458 0.50278485
-0.11225747 -0.43749431 0.50217706
-0.04712221 -0.45120832 0.50431031
0.028729141 -0.44931859 0.50361371
-0.11191265 -0.36325243 0.50114077
-0.047763709 -0.36879611 0.50446326
0.026082689 -0.36882019 0.50392359
-0.10791735 -0.24640453 0.50256938
-0.043234453 -0.24479958 0.50446528
0.02706931 -0.2448477 0.50358957
-0.11270456 -0.14834674 0.50144953
-0.044945467 -0.15094061 0.50447059
0.027040143 -0.14977807 0.50371796
-0.1127804 -0.053706106 0.50169522
-0.045812834 -0.050054658 0.50451624
0.027228078 -0.052440595 0.50380611
-0.1123655 0.054476772 0.50216538
-0.046525568 0.050324995 0.50449556
0.027834155 0.049846258 0.50384736
-0.11294258 0.14311334 0.50142866
-0.045639865 0.15117827 0.50445402
0.02665453 0.15099075 0.50379598
-0.10942297 0.2491983 0.50247753
-0.044450171 0.25076512 0.50457883
0.027717361 0.25067264 0.50348598
-0.11107008 0.32935223 0.50207639
-0.045576874 0.34126398 0.50440371
0.026135772 0.34069547 0.50370586
-0.115221 0.4589664 0.50109863
-0.047048979 0.46336228 0.50430715
0.027995044 0.46272695 0.50363123
-0.10973648 0.55479968 0.50319445
-0.046025097 0.54959756 0.50445735
0.028641257 0.55046886 0.5035975
-0.10368398 0.62989503 0.50316012
-0.045869254 0.62750328 0.50405878
0.025859231 0.6288988 0.50352365
