# .PCD v0.7 - Point Cloud Data file format
VERSION 0.7
FIELDS x y z
SIZE 4 4 4
TYPE F F F
COUNT 1 1 1
WIDTH 457
HEIGHT 1
VIEWPOINT 0 0 0 1 0 0 0
POINTS 457
DATA ascii
-0.024990393 0.18798575 -0.40298671
0.020560894 0.18948883 -0.4019168
-0.11694258 0.27908573 -0.40465152
-0.048640754 0.25789338 -0.40858191
0.043722983 0.2674816 -0.40802693
0.1041337 0.27870446 -0.40168464
-0.12892351 0.35637137 -0.40925023
-0.049189471 0.35028508 -0.42063773
0.048507545 0.35059372 -0.41450375
0.10687032 0.35642588 -0.40387207
-0.13713072 0.44630113 -0.41224653
-0.048505131 0.45058852 -0.42242673
0.047084 0.44591123 -0.41460121
0.10894231 0.43651894 -0.40332526
-0.11414494 -0.11543361 -0.30461708
-0.050501775 -0.12934832 -0.30705309
0.025688946 -0.12498868 -0.30693775
-0.20601988 -0.009360115 -0.30507365
-0.13999851 -0.040304769 -0.31398731
-0.048468806 -0.048223268 -0.32634345
0.049352091 -0.0449108 -0.32019624
0.12064952 -0.027903112 -0.30701929
-0.22267434 0.056268774 -0.31055665
-0.14959167 0.051608156 -0.3350288
-0.049166527 0.050560389 -0.3502107
0.050479755 0.050636973 -0.34308881
0.13916677 0.055756003 -0.32285151
0.20573382 0.083677717 -0.30360255
-0.30277482 0.19738841 -0.30255666
-0.23736878 0.15667236 -0.3261117
-0.14972353 0.15239905 -0.35420704
-0.049843047 0.14948019 -0.37224594
0.051674653 0.14965007 -0.36843011
0.1496923 0.15176925 -0.34007782
0.21447347 0.15582411 -0.3105129
-0.30607024 0.26626453 -0.30544442
-0.24514392 0.25255948 -0.33229175
-0.15348701 0.24943618 -0.36920658
-0.051364038 0.24279471 -0.3790499
0.055088557 0.24160893 -0.37888014
0.14822882 0.25109094 -0.3556793
0.22200856 0.25173926 -0.32127783
-0.30978611 0.3548905 -0.30926058
-0.24758007 0.35052532 -0.3435654
-0.16259187 0.34660909 -0.37462026
-0.050338957 0.35032737 -0.38028628
0.056285717 0.34927186 -0.3757982
0.15261216 0.35006189 -0.36249444
0.22923712 0.35169536 -0.32416227
-0.31172472 0.44508758 -0.31258363
-0.24747743 0.45109832 -0.34724367
-0.1611158 0.45397475 -0.37680846
-0.050050829 0.45138422 -0.38733146
0.056825809 0.45750383 -0.3800607
0.15195294 0.45210245 -0.3602106
0.22986978 0.44989029 -0.32391182
-0.137174 -0.53796214 -0.21942244
-0.048862949 -0.54376608 -0.23602934
0.04850607 -0.54129964 -0.2290978
0.1128241 -0.53401816 -0.2083226
-0.1398672 -0.45158896 -0.22348627
-0.050778043 -0.44974756 -0.24488346
0.051403511 -0.44977814 -0.23522575
0.11530085 -0.45003322 -0.21105784
-0.20521434 -0.32329717 -0.20532727
-0.14638342 -0.34969676 -0.22718555
-0.048197299 -0.34975752 -0.2533851
0.053103361 -0.34947035 -0.24163137
0.12452542 -0.34125888 -0.21431296
-0.21335971 -0.23034635 -0.21423209
-0.14990783 -0.24825454 -0.24180293
-0.050448325 -0.25023058 -0.26869285
0.049968012 -0.24961796 -0.25910223
0.13320491 -0.24427068 -0.22452447
-0.22792576 -0.14360313 -0.22285531
-0.15332039 -0.15043677 -0.26243377
-0.049479701 -0.16029233 -0.28339267
0.056856159 -0.15578966 -0.27592269
0.14569961 -0.14641845 -0.24065676
0.20728934 -0.12195899 -0.20875983
-0.30545083 -0.010136637 -0.2104028
-0.24377529 -0.045992706 -0.24359058
-0.16516894 -0.060244761 -0.27492571
-0.052963372 -0.061875749 -0.28765699
0.059434455 -0.06243442 -0.28418145
0.15473127 -0.050960019 -0.26371592
0.22294192 -0.039908227 -0.2208821
-0.31843892 0.058200177 -0.22211087
-0.26097804 0.047132798 -0.2616058
-0.16706133 0.039501596 -0.28543794
-0.074959002 0.0097165927 -0.29667947
0.07238587 0.023315653 -0.29287252
0.16729763 0.03977444 -0.27497727
0.24027237 0.053982764 -0.24363457
-0.33225572 0.15344089 -0.23945121
-0.26762795 0.14376272 -0.27507442
-0.18660605 0.12326737 -0.2950356
0.17839903 0.14474097 -0.28393406
0.2547754 0.14945237 -0.25224891
0.30671203 0.16790764 -0.20884949
-0.40188938 0.29471889 -0.20276242
-0.34153584 0.25135946 -0.24630149
-0.27189979 0.24780503 -0.27650392
0.18930578 0.2445399 -0.2905902
0.26070327 0.25041735 -0.25988269
0.31142169 0.25642908 -0.21984273
-0.40248924 0.36296391 -0.20458113
-0.35191759 0.34999976 -0.24838343
-0.27703056 0.35013756 -0.27924278
0.19240978 0.34371951 -0.29375398
0.26504487 0.34988871 -0.26428401
0.31851068 0.35271037 -0.22792508
-0.40327328 0.44344923 -0.20380911
-0.35094869 0.45169502 -0.24882074
-0.28326181 0.44931021 -0.28400773
0.19550057 0.43663511 -0.29565549
0.26611137 0.4526082 -0.26607528
0.32190111 0.45005631 -0.23026472
-0.22766362 -0.53934014 -0.13796698
-0.15393376 -0.55504668 -0.15434559
-0.049163513 -0.55837137 -0.14954874
0.049931295 -0.55845988 -0.14932224
0.15099849 -0.54521275 -0.14825509
0.20434022 -0.53051519 -0.10760374
-0.23064011 -0.44952071 -0.14272974
-0.17931145 -0.44912124 -0.18579261
-0.083507486 -0.45150664 -0.19410242
0.075984314 -0.45197505 -0.18375283
0.16370848 -0.44957718 -0.15567629
0.20625632 -0.44870386 -0.10988629
-0.2372769 -0.34627554 -0.14697498
-0.18216385 -0.36305228 -0.1812824
0.080685079 -0.35353935 -0.19178602
0.16448632 -0.35330287 -0.1635191
0.20869182 -0.34808266 -0.12022009
-0.25060222 -0.24978699 -0.15135953
-0.1829939 -0.26477557 -0.18744017
0.091081887 -0.27843943 -0.19303699
0.17642511 -0.25686771 -0.16886728
0.22093131 -0.24250816 -0.12842545
-0.31084982 -0.13671148 -0.11792149
-0.27031085 -0.15271276 -0.15765919
-0.18962993 -0.171729 -0.18962985
0.17919534 -0.16667762 -0.17801519
0.2316265 -0.1452779 -0.14631368
-0.32303154 -0.045987528 -0.14184079
-0.27931806 -0.0585737 -0.17196581
0.18636413 -0.07255394 -0.18439408
0.25617227 -0.050736316 -0.15240064
0.30486092 -0.014741032 -0.11436886
-0.34589055 0.050845012 -0.14918545
-0.28695831 0.033449873 -0.17738388
0.27477694 0.042360414 -0.16520998
0.31071356 0.056973413 -0.13487238
-0.40678677 0.1736003 -0.11945724
-0.36808893 0.14662963 -0.15567879
-0.29709506 0.11631775 -0.1995693
0.28399473 0.14514981 -0.16589831
0.32522461 0.15323347 -0.14669624
-0.41402739 0.25905773 -0.1394517
-0.37782952 0.2445108 -0.16196509
0.28704679 0.24769302 -0.17433679
0.33700439 0.25232872 -0.14808697
-0.42137232 0.35115972 -0.14605607
-0.37787595 0.34908858 -0.15960422
0.29219887 0.34396416 -0.1859691
0.3503727 0.35151377 -0.14927937
-0.42092007 0.44844759 -0.1441887
-0.38039914 0.45588586 -0.16194922
0.29567751 0.4396387 -0.19212775
0.35513812 0.45235923 -0.15114437
-0.25080594 -0.54613733 -0.048784986
-0.15057261 -0.55848366 -0.049650852
-0.049606312 -0.55836368 -0.049676649
0.050625172 -0.55826914 -0.049858183
0.15035433 -0.55760193 -0.049660515
0.21568026 -0.53655839 -0.047888167
-0.26875073 -0.44972691 -0.049888764
0.18786915 -0.45128784 -0.078144394
0.21789116 -0.449911 -0.049361035
-0.30212381 -0.31233218 -0.018260159
-0.27520856 -0.35053223 -0.051594052
0.19137999 -0.34745067 -0.063785806
0.22528394 -0.34989044 -0.049548864
-0.30711839 -0.23540631 -0.040605877
-0.2849254 -0.2560257 -0.057044841
0.19131076 -0.25481316 -0.075045034
0.24058528 -0.24963023 -0.049190268
-0.32229629 -0.14615038 -0.04586703
-0.28655729 -0.16322221 -0.063448481
0.26166698 -0.14864998 -0.050897706
-0.34452307 -0.049559757 -0.050042182
-0.29293078 -0.075269178 -0.06666816
0.28072861 -0.060480818 -0.052401271
0.3082338 -0.030663934 -0.049934175
-0.40281853 0.092527851 -0.029934064
-0.37056687 0.048632991 -0.050817762
0.2872099 0.041330371 -0.054145247
0.3355169 0.058691896 -0.046061601
0.45095989 0.091919161 -0.029871432
0.54896307 0.092762023 -0.028033022
0.60624391 0.098353349 -0.013734939
-0.41060182 0.15857378 -0.044925492
-0.38030756 0.1415531 -0.056301244
0.29517704 0.12363162 -0.069711126
0.34777737 0.14986752 -0.053697068
0.4513582 0.12090246 -0.043211319
0.55406278 0.12129162 -0.043813471
0.6480791 0.14994061 -0.036584519
-0.42748392 0.25167903 -0.048874445
-0.3884683 0.24547482 -0.052496679
0.35955054 0.25051114 -0.051298846
0.68124551 0.24933828 -0.038689986
0.70195252 0.25664556 -0.016993484
-0.4384234 0.35136899 -0.048396003
-0.39539614 0.33675376 -0.062725805
0.3730911 0.34646097 -0.05624339
0.447979 0.3797442 -0.039247598
0.54860908 0.38170955 -0.041113038
0.66761571 0.35707939 -0.040185228
0.70218414 0.32602265 -0.014275418
-0.43672156 0.45207527 -0.04924833
-0.39603353 0.44325149 -0.084058262
0.37625796 0.45710999 -0.055036969
0.43978593 0.42340127 -0.035091564
0.55079865 0.41249722 -0.033863083
0.63168555 0.41011479 -0.030450402
-0.25067586 -0.54624307 0.049622305
-0.15042301 -0.55851942 0.05038074
-0.04960287 -0.55861777 0.050676763
0.050747436 -0.5583747 0.050456434
0.15024653 -0.55809867 0.050761525
0.21585102 -0.53642756 0.047631893
-0.26857737 -0.44932079 0.051887296
0.18712892 -0.4513647 0.062159617
0.21862568 -0.45040458 0.048296269
-0.30170462 -0.31006911 0.023953082
-0.27660808 -0.34931168 0.051166397
0.1903 -0.35638452 0.07476721
0.22546509 -0.35049585 0.0491607
-0.30882236 -0.23367737 0.032343905
-0.28396013 -0.25834945 0.061145246
0.19138584 -0.26492822 0.068939723
0.24079989 -0.2488353 0.051398192
-0.32065022 -0.1480144 0.04962422
-0.28438511 -0.16057822 0.05600049
0.26238468 -0.14916499 0.049354494
-0.3457616 -0.050001137 0.050528355
-0.29380515 -0.075228229 0.067462564
0.27986285 -0.058847073 0.057641234
0.30889374 -0.032166384 0.037123878
-0.40161538 0.090276055 0.042643491
-0.37223113 0.049427602 0.051071171
0.28628767 0.040618435 0.055657249
0.33605698 0.060114328 0.047674593
0.45044363 0.091299027 0.035241291
0.54807585 0.092352435 0.032884497
0.6059739 0.098339275 0.018583924
-0.41121125 0.16238689 0.041219991
-0.38186055 0.14109045 0.059193164
0.29646641 0.11664642 0.069666877
0.34824947 0.14850231 0.054957926
0.45148113 0.12220852 0.048387423
0.55344301 0.12306239 0.049077101
0.64748281 0.15131868 0.041138012
0.70031738 0.19371662 0.0092211515
-0.42349395 0.25184655 0.049817178
-0.38505992 0.2484583 0.052751057
0.36378622 0.25129682 0.051552564
0.67742133 0.24902374 0.043947417
0.70208955 0.25688514 0.018115018
-0.43646055 0.35136822 0.048536342
-0.39341953 0.34041664 0.067156844
0.3737191 0.347229 0.056543961
0.44629604 0.37649286 0.043578796
0.54979074 0.3806836 0.045514528
0.66636598 0.35589153 0.044735935
0.70196313 0.32792398 0.015499757
-0.43792287 0.4518427 0.049535643
-0.39583671 0.42925361 0.088462889
0.37452367 0.45694304 0.054089937
0.44762829 0.41707012 0.036585685
0.55057615 0.41275132 0.037760511
0.63174003 0.41049203 0.033552762
-0.2277859 -0.53956538 0.13860497
-0.15392819 -0.55518073 0.15452529
-0.049195133 -0.55858243 0.14962187
0.049951773 -0.55866718 0.14945254
0.15148868 -0.54542166 0.14877614
0.20455737 -0.53160703 0.107636
-0.23212864 -0.44973448 0.14239781
-0.18306816 -0.44963911 0.18285891
-0.084118672 -0.47660899 0.19820866
0.077411592 -0.45341974 0.18849419
0.16173454 -0.44975308 0.15895301
0.20655583 -0.44705239 0.10970377
-0.23681965 -0.34974512 0.14834206
-0.17894669 -0.36426589 0.18711634
-0.086684242 -0.39496309 0.19842717
0.081362493 -0.35982534 0.19105317
0.16906641 -0.35408941 0.16015683
0.2108878 -0.33349937 0.12248393
-0.30057916 -0.22013628 0.11130491
-0.25392318 -0.24980639 0.14974698
-0.18734828 -0.26904523 0.18632521
0.089997642 -0.26954347 0.19557187
0.1745244 -0.25861469 0.17174003
0.21723415 -0.2418834 0.1337624
-0.31245592 -0.12754485 0.12139898
-0.26813012 -0.15629603 0.15997632
-0.18951182 -0.17252654 0.19020161
0.18208063 -0.16853786 0.17397569
0.23399472 -0.14499877 0.14531675
-0.32440299 -0.044775236 0.14432378
-0.2767213 -0.064484306 0.17093475
0.18690039 -0.068510532 0.18558155
0.25649983 -0.050015796 0.1525823
0.30396217 -0.012238031 0.10982536
-0.34846637 0.049412992 0.15088363
-0.28801116 0.035297718 0.18233515
0.27571163 0.040843509 0.16198838
0.31172109 0.061911076 0.13548136
-0.40347335 0.17145656 0.11431756
-0.36783385 0.15035668 0.15240298
-0.29061896 0.10338074 0.19893482
0.28409958 0.14191587 0.17109138
0.32913584 0.15142231 0.14733768
-0.41099283 0.26210758 0.12738562
-0.37433979 0.24712537 0.16109221
0.28991416 0.24502593 0.18338051
0.34300181 0.25134358 0.15020356
-0.41876495 0.35315233 0.14104025
-0.37705451 0.34686512 0.1634215
0.29235181 0.34867182 0.19000143
0.3522796 0.35082927 0.15053694
-0.42202422 0.44993669 0.14504747
-0.38054401 0.45305651 0.16287872
0.29341662 0.44729018 0.19135182
0.34901902 0.45219624 0.1500573
-0.13750923 -0.53814971 0.2205371
-0.049053725 -0.54406226 0.2371449
0.048500545 -0.54199737 0.23012464
0.1132298 -0.53411299 0.20965798
-0.14220349 -0.45066592 0.22242507
-0.050788783 -0.45025876 0.24783646
0.051711794 -0.45039174 0.23688196
0.1138149 -0.45013788 0.21253255
-0.20435865 -0.334943 0.20543067
-0.14597335 -0.34662294 0.23026763
-0.048995283 -0.35059261 0.2548182
0.052081261 -0.34932202 0.24375564
0.1251917 -0.34626958 0.21423501
-0.2173878 -0.22860105 0.21369395
-0.15037444 -0.24991071 0.24286295
-0.050432649 -0.24935502 0.27053908
0.05114872 -0.24928792 0.26098749
0.13368897 -0.24517787 0.22739872
-0.22805771 -0.14281914 0.22412194
-0.15256345 -0.14961745 0.26571751
-0.049873143 -0.16161534 0.28450242
0.056170709 -0.15743141 0.27678937
0.1471864 -0.14813085 0.24052252
0.20882541 -0.12444704 0.20830898
-0.3082436 -0.016374016 0.21098965
-0.24502966 -0.046032917 0.24453789
-0.16490239 -0.058736663 0.2773768
-0.05598345 -0.060698342 0.28844437
0.06096267 -0.062665015 0.28307039
0.15719114 -0.055069182 0.26037899
0.22111408 -0.035788178 0.22865099
-0.31900758 0.056246798 0.22289701
-0.2601845 0.046850454 0.26414409
-0.16541471 0.03720282 0.2848888
-0.06683597 0.016588233 0.29746863
0.073972099 0.027507044 0.29321301
0.16974488 0.038836904 0.27567881
0.2409099 0.054556135 0.24322005
0.30409154 0.094960995 0.20340665
-0.3294417 0.15418333 0.24138308
-0.27027988 0.14266257 0.27234071
-0.18983959 0.12100164 0.29628801
0.17594717 0.13972948 0.28508469
0.25475052 0.14771725 0.25597954
0.30968192 0.17154238 0.21666513
-0.33831531 0.25160682 0.24554937
-0.27699697 0.25028202 0.27615049
0.18382713 0.2456716 0.28979376
0.26269263 0.24981551 0.26052925
0.31662884 0.25304255 0.2209166
-0.40112269 0.38625371 0.20288722
-0.34748408 0.35050949 0.24808781
-0.27690363 0.34949678 0.27771837
0.19359136 0.3406772 0.29185289
0.26550484 0.34999883 0.26556772
0.32041475 0.35085914 0.22784242
-0.40408957 0.4539614 0.20570268
-0.34991717 0.45143276 0.24853264
-0.27986237 0.45056009 0.28338349
0.19622386 0.42420903 0.29685885
0.26714844 0.45327201 0.26424086
0.31906357 0.44902539 0.22832462
-0.032440901 -0.20311281 0.30055857
-0.11547851 -0.12354049 0.30394033
-0.050702441 -0.13162914 0.30841348
0.032875907 -0.12643182 0.30724165
-0.20362681 -0.0081670992 0.30264869
-0.13619432 -0.041949179 0.31523377
-0.047458362 -0.04943293 0.32677299
0.049263995 -0.047876593 0.32007161
0.12380733 -0.027532479 0.31124562
-0.22487669 0.06544093 0.31158546
-0.14992025 0.052309908 0.33328414
-0.04894153 0.050265912 0.34873629
0.051104866 0.050208934 0.3434231
0.14301577 0.053736988 0.31996578
0.20481439 0.082975462 0.30459017
-0.30187052 0.18647243 0.30386135
-0.23815052 0.1540546 0.32858348
-0.14988282 0.15032412 0.35691836
-0.049883913 0.14984734 0.37227038
0.051374655 0.15052709 0.36396009
0.14785537 0.15160905 0.33665776
0.21465233 0.16752987 0.3111203
-0.30575517 0.26026827 0.30484277
-0.24738006 0.25161105 0.3369225
-0.15718065 0.24631621 0.37339902
-0.051688973 0.24211007 0.380137
0.057539303 0.24541481 0.37564436
0.14889206 0.25128761 0.34906065
0.22297762 0.25310436 0.31507897
-0.30875161 0.35543525 0.30706143
-0.24754462 0.35007203 0.3451516
-0.16483855 0.34937748 0.37605542
-0.048178077 0.3499985 0.38284674
0.059022911 0.34612295 0.37657475
0.15156607 0.35010257 0.35993057
0.22894217 0.35240051 0.32303849
-0.31064343 0.44405377 0.309762
-0.24716996 0.45132354 0.34276938
-0.16148774 0.4553175 0.37567866
-0.050605979 0.45153886 0.38830748
0.055140279 0.45455357 0.38337871
0.15594544 0.45185629 0.36317229
0.23013207 0.4502596 0.32594529
-0.10120812 0.18024766 0.40027457
-0.047359806 0.19089413 0.40203521
-0.12441514 0.26980129 0.4064613
-0.04645301 0.26033372 0.40964517
0.029101001 0.27019334 0.40673688
-0.13257799 0.35190508 0.41113749
-0.049194876 0.35012785 0.42283359
0.046787377 0.3537488 0.41458136
0.10907464 0.37198392 0.40333211
-0.13128869 0.4435614 0.41123867
-0.048352946 0.45146567 0.4234989
0.049318515 0.44961265 0.41940275
0.11438108 0.44617 0.4059673
