# .PCD v0.7 - Point Cloud Data file format
VERSION 0.7
FIELDS x y z
SIZE 4 4 4
TYPE F F F
COUNT 1 1 1
WIDTH 654
HEIGHT 1
VIEWPOINT 0 0 0 1 0 0 0
POINTS 654
DATA ascii
-0.024299204 0.093106769 -0.40094814
-0.10704962 0.18145025 -0.40193573
-0.045955624 0.16665466 -0.40344888
0.014095861 0.17121148 -0.40261418
-0.12080026 0.26360562 -0.40423733
-0.047552921 0.25516704 -0.40740645
0.028869115 0.26196784 -0.40539366
-0.20048317 0.39718157 -0.40023187
-0.13154487 0.35499853 -0.40794817
-0.049627308 0.3504813 -0.41508719
0.040083908 0.3541159 -0.40958792
0.10765015 0.38814533 -0.40116432
-0.20678402 0.47554225 -0.40275598
-0.14402403 0.45294252 -0.4134475
-0.049120046 0.45198581 -0.42335999
0.048939638 0.45192346 -0.41599613
0.11324128 0.46426874 -0.40459973
-0.21240491 0.56014925 -0.40602401
-0.14701378 0.55181724 -0.41990152
-0.048619639 0.55236858 -0.4287473
0.049044229 0.55135041 -0.42309818
0.12085567 0.55759269 -0.40844762
-0.21704443 0.61688602 -0.40624875
-0.14650314 0.62030011 -0.42069495
-0.04898379 0.62087715 -0.42853886
0.048180047 0.62114733 -0.4230077
0.12492847 0.61808676 -0.40954602
-0.12506682 -0.61918402 -0.30845171
-0.050109796 -0.62297577 -0.3152087
0.035863649 -0.62063688 -0.30974275
-0.13610211 -0.54655957 -0.31219766
-0.049758539 -0.55032307 -0.32458851
0.04465352 -0.54849553 -0.31504795
0.1058185 -0.52685696 -0.30271411
-0.2057519 -0.43103635 -0.30238357
-0.1453571 -0.44790807 -0.31849781
-0.049186412 -0.45000538 -0.33427361
0.049727164 -0.44959223 -0.32281694
0.11123767 -0.43963435 -0.30631149
-0.21157032 -0.34159446 -0.30615154
-0.15053108 -0.34926546 -0.32624066
-0.049913269 -0.3492521 -0.34371433
0.050616622 -0.35002008 -0.33225557
0.11909391 -0.34418505 -0.31025931
-0.21899092 -0.24394584 -0.31023359
-0.1509902 -0.24974233 -0.33571199
-0.050141558 -0.24909893 -0.35314497
0.050599813 -0.25005278 -0.3420229
0.12825608 -0.24690351 -0.31524035
-0.22584867 -0.14667806 -0.31614792
-0.15016074 -0.14986683 -0.34578753
-0.049672082 -0.14952157 -0.36234909
0.05194509 -0.15031593 -0.35122931
0.13672729 -0.14789557 -0.3208724
-0.23434332 -0.048018392 -0.32157755
-0.14935431 -0.05025842 -0.35544983
-0.050186459 -0.050542414 -0.37212852
0.050785545 -0.050325055 -0.36126491
0.14529367 -0.04855071 -0.3263123
-0.24214797 0.051959194 -0.32711565
-0.15087131 0.050198872 -0.36484554
-0.049449477 0.050308906 -0.3813369
0.051250398 0.048977669 -0.37057281
0.1484907 0.050998174 -0.33409745
0.20662788 0.060643006 -0.30670482
-0.30610245 0.172934 -0.30476096
-0.24741285 0.15188025 -0.33341354
-0.15095888 0.15012701 -0.37373531
-0.049449813 0.14523287 -0.38764939
0.053179905 0.14985082 -0.37839636
0.14991163 0.150813 -0.34285364
0.212318 0.15503053 -0.31006223
-0.30926362 0.25935972 -0.30853453
-0.24914846 0.25112084 -0.34185103
-0.15569058 0.24856876 -0.38008612
-0.05262487 0.24204017 -0.38524449
0.058096997 0.24667156 -0.38379776
0.14920989 0.25002071 -0.35227758
0.21804054 0.25329757 -0.31576866
-0.31566447 0.35549501 -0.31339878
-0.24978653 0.35047361 -0.35091069
-0.1635498 0.34742513 -0.38223326
-0.048927732 0.35124332 -0.38417554
0.064279698 0.34575748 -0.38353094
0.15149508 0.35034454 -0.36079362
0.22541136 0.35267344 -0.32118049
-0.32187131 0.45259181 -0.31937131
-0.25149372 0.45092696 -0.35810688
-0.16232902 0.44836104 -0.3826319
-0.050430492 0.44719449 -0.39099073
0.057933882 0.44973496 -0.3847011
0.15413767 0.45049337 -0.36715552
0.23112762 0.45301077 -0.32632372
-0.32801804 0.55279028 -0.3244656
-0.25501004 0.54951847 -0.36439213
-0.1574875 0.54850447 -0.38539851
-0.0517193 0.54293197 -0.39509183
0.059832752 0.54942894 -0.38874438
0.15951397 0.54981762 -0.37145406
0.23629612 0.55322754 -0.33152428
-0.32725331 0.62005305 -0.3249903
-0.25618267 0.62090755 -0.36659756
-0.16546267 0.61956888 -0.39005223
-0.061439048 0.6086213 -0.3983919
0.069390267 0.61826611 -0.39271489
0.16027379 0.62173283 -0.37432739
0.23848262 0.620736 -0.33143297
-0.23973006 -0.62501204 -0.23370981
-0.15193494 -0.62399012 -0.25440931
-0.049434785 -0.62015945 -0.25119379
0.0526517 -0.62361962 -0.25393975
0.14427726 -0.62570029 -0.24035823
0.20813613 -0.61722422 -0.20691007
-0.30373257 -0.52899593 -0.20469853
-0.25003505 -0.54966164 -0.24592306
-0.17462052 -0.55657578 -0.28317741
-0.048100829 -0.56969333 -0.24916527
0.073950812 -0.56297791 -0.27831113
0.15173948 -0.55146658 -0.25997531
0.21102613 -0.5431307 -0.21346678
-0.3082529 -0.43908986 -0.20907861
-0.25265205 -0.45082948 -0.25587735
-0.18206806 -0.45788649 -0.29090166
-0.047606952 -0.45829064 -0.29675773
0.0723138 -0.46294692 -0.2901299
0.15716168 -0.45135638 -0.26864353
0.21695369 -0.44778335 -0.21943139
-0.31312984 -0.34579879 -0.21517394
-0.25759149 -0.35131341 -0.26412904
-0.17358403 -0.35743469 -0.28816646
-0.093313098 -0.38826048 -0.29212728
0.068182878 -0.36042133 -0.28965327
0.16587915 -0.35291487 -0.27379799
0.2228317 -0.3474496 -0.22643259
-0.31808105 -0.24755143 -0.2232016
-0.26458672 -0.25193334 -0.26980656
-0.1739026 -0.25468141 -0.29057431
0.082923405 -0.26215273 -0.29427692
0.17314573 -0.25164917 -0.27864063
0.22951683 -0.24826553 -0.23289606
-0.32518888 -0.14773458 -0.22938286
-0.27256891 -0.15267199 -0.27428809
-0.18458126 -0.1516348 -0.29353285
0.0947726 -0.16560304 -0.29562724
0.17880037 -0.15373592 -0.28420055
0.23531258 -0.14821622 -0.2401274
-0.32957464 -0.049739599 -0.23719218
-0.27575082 -0.053254861 -0.28047416
-0.19417407 -0.068876088 -0.29339793
0.18291922 -0.058333095 -0.28655076
0.24099462 -0.049162008 -0.24738319
-0.33604875 0.050516017 -0.24334422
-0.28061897 0.044827886 -0.28406844
0.17975381 0.046115302 -0.28631985
0.24914145 0.050414313 -0.25097519
0.30227637 0.085037425 -0.2027005
-0.3429749 0.1504222 -0.24841972
-0.27902362 0.14595492 -0.28247297
0.18405242 0.14727917 -0.28532422
0.257411 0.15050761 -0.25417122
0.30429375 0.16343349 -0.2104536
-0.40280303 0.2775737 -0.20458719
-0.3517873 0.25042978 -0.25015396
-0.28150943 0.24495091 -0.28288239
0.18656728 0.24319306 -0.29104719
0.26204023 0.24958681 -0.25995299
0.30947486 0.25644448 -0.21394515
-0.40534982 0.36278939 -0.21047686
-0.35963517 0.35013217 -0.25279117
-0.2866984 0.34264743 -0.2888487
0.19363178 0.33552164 -0.29458582
0.26720321 0.34981683 -0.26478362
0.31435457 0.35394883 -0.22209425
-0.41007718 0.45786715 -0.21549252
-0.36272225 0.44990817 -0.25871584
-0.291592 0.44523561 -0.2941789
0.19620146 0.40829065 -0.29816252
0.2710183 0.44941795 -0.26790878
0.31906411 0.45355007 -0.22992259
-0.41523656 0.55506122 -0.22328344
-0.36699426 0.54921871 -0.26323798
-0.29622972 0.5180493 -0.29772377
0.27558607 0.54899877 -0.27110288
0.32364514 0.55197453 -0.2352006
-0.4149715 0.61998898 -0.22538871
-0.37054956 0.62115782 -0.26389053
0.27868524 0.62114167 -0.27441362
0.32492396 0.62004691 -0.23676933
-0.32004783 -0.62398458 -0.13940182
-0.25235477 -0.62169307 -0.15163291
-0.14979465 -0.60771912 -0.15010577
-0.049266193 -0.60657519 -0.1505612
0.050133549 -0.60712934 -0.15042727
0.15069996 -0.61731917 -0.15046392
0.23102248 -0.62581933 -0.1448434
-0.32867888 -0.5494529 -0.1482328
-0.27235368 -0.56413716 -0.17033979
-0.14898512 -0.5749346 -0.14504062
-0.049919657 -0.57493329 -0.14293291
0.049853217 -0.57492298 -0.14446311
0.1510547 -0.57263118 -0.14974877
0.24615605 -0.54974246 -0.15126269
-0.33767194 -0.45077106 -0.15024567
-0.28620437 -0.4607386 -0.17509633
0.19290674 -0.45992851 -0.18844749
0.25772116 -0.45030415 -0.15147704
-0.34816399 -0.34987599 -0.15061484
-0.28459173 -0.34933659 -0.18392672
0.19782999 -0.35229823 -0.19188404
0.26889056 -0.35159591 -0.15095973
0.30097082 -0.31838 -0.10964954
-0.3580884 -0.24950056 -0.15176755
-0.29367244 -0.24344619 -0.18871209
0.27563551 -0.25328997 -0.1571043
0.30476969 -0.23650631 -0.11403894
-0.40165496 -0.11788714 -0.10376412
-0.36787543 -0.14997944 -0.15203187
-0.29526183 -0.141635 -0.19591613
0.28029272 -0.15263385 -0.16717732
0.30884048 -0.1442439 -0.12404323
-0.40435112 -0.036665089 -0.11301322
-0.37598833 -0.051999293 -0.15548342
0.28439859 -0.052470639 -0.17371407
0.31404141 -0.047140323 -0.13439831
-0.4082512 0.055406567 -0.12306606
-0.38069075 0.046994228 -0.16359664
0.28617442 0.045356266 -0.17264308
0.31888816 0.051764902 -0.14442261
-0.4134661 0.15359081 -0.13338602
-0.38289008 0.14741088 -0.1703769
0.28570086 0.14542724 -0.17181021
0.32560337 0.15192489 -0.14985637
-0.41884589 0.25284052 -0.14326446
-0.3850233 0.24583745 -0.16832143
0.28830686 0.24765885 -0.17705022
0.333666 0.25102264 -0.15009502
-0.42476952 0.35142192 -0.14840226
-0.38434932 0.34879848 -0.16748072
0.29071516 0.34374204 -0.18596363
0.34167355 0.35129485 -0.14951123
-0.43204576 0.45118931 -0.14770932
-0.38800806 0.44513685 -0.17564449
0.29624599 0.44329357 -0.19134788
0.34910989 0.45159206 -0.15127377
-0.43962041 0.55067086 -0.14835432
-0.39228112 0.54494011 -0.18556924
0.29788834 0.50467056 -0.19889098
0.35754335 0.55091435 -0.15145546
0.40237188 0.59765226 -0.10070544
-0.4411045 0.62070227 -0.15042517
-0.39665347 0.61665362 -0.18935058
0.36104175 0.62086195 -0.15144335
-0.33684969 -0.62642318 -0.048405711
-0.25046423 -0.61125875 -0.049088251
-0.14975783 -0.60651046 -0.04984168
-0.048986498 -0.60651302 -0.049773149
0.050193448 -0.60650742 -0.049885027
0.14975184 -0.60854036 -0.049627461
0.24807906 -0.62522459 -0.048726231
-0.35893083 -0.55062926 -0.051240314
-0.24482208 -0.57493681 -0.044482812
-0.14910567 -0.57492697 -0.047268391
-0.048498575 -0.57492763 -0.046249762
0.051230762 -0.57491159 -0.047501229
0.14386354 -0.57494718 -0.044200115
0.27834383 -0.55073518 -0.050654661
-0.36939511 -0.44980553 -0.050154984
0.28830472 -0.45367888 -0.054627243
0.30332431 -0.43195328 -0.026544983
-0.37895203 -0.34932017 -0.050042216
0.29094678 -0.36039183 -0.063133523
0.31867883 -0.33467931 -0.035991285
-0.40282673 -0.22780892 -0.026299121
-0.38696122 -0.25258785 -0.052873019
0.28417301 -0.25042072 -0.057000805
0.34947228 -0.25373876 -0.059622042
0.44845286 -0.25303343 -0.050408486
0.52973342 -0.22380108 -0.039259765
-0.40638655 -0.14165381 -0.039883737
-0.39039215 -0.15916345 -0.063504145
0.28847662 -0.15083745 -0.056136768
0.32320952 -0.14798103 -0.053744003
0.46695566 -0.17978078 -0.03605739
0.55892384 -0.15641268 -0.056276675
0.61670607 -0.1279747 -0.034636095
-0.41233888 -0.049244151 -0.046445776
-0.38621923 -0.060159747 -0.064376324
0.29274729 -0.054899599 -0.061523952
0.33111149 -0.049180701 -0.051637314
0.57506037 -0.058009986 -0.046737313
0.63865083 -0.049253594 -0.049655583
-0.42075622 0.049255989 -0.050309788
-0.38772529 0.050752562 -0.05114894
0.29542139 0.035647929 -0.073608115
0.33893907 0.051339552 -0.052179441
0.58712542 0.031628229 -0.026799487
0.65467656 0.050948996 -0.051153414
0.70094609 0.096978605 -0.0071789622
-0.42930347 0.15062192 -0.048994683
-0.3926768 0.14919807 -0.05649431
0.29844946 0.10211283 -0.083709121
0.3465476 0.15064354 -0.050890006
0.59436882 0.12307584 -0.017004462
0.66424572 0.14713836 -0.054609142
0.70544559 0.16894589 -0.022510216
-0.43706492 0.25145265 -0.049943179
-0.39646673 0.23942605 -0.075665407
0.35622084 0.25000173 -0.051334184
0.66436887 0.2473888 -0.060527734
0.71262151 0.25272244 -0.032948744
-0.4446429 0.35133231 -0.049850762
-0.39762521 0.32424182 -0.09823522
0.36434644 0.35075697 -0.051191594
0.5876351 0.38779095 -0.023769179
0.66094017 0.35660619 -0.058933474
0.71176559 0.34000522 -0.031820167
-0.45298713 0.45074594 -0.04987656
0.36872914 0.44544461 -0.058798961
0.45108867 0.45716032 -0.056263629
0.55413067 0.45805439 -0.052853338
0.64275092 0.43862522 -0.044671614
-0.46161741 0.55108213 -0.050364789
0.37842292 0.55208695 -0.054678794
0.44212151 0.52512735 -0.032967716
0.52681851 0.50678504 -0.023904927
-0.46472856 0.6206587 -0.050084107
0.38192898 0.62208939 -0.05315632
0.40430602 0.61591619 -0.036044344
-0.33683863 -0.62638116 0.048378855
-0.24993086 -0.61120605 0.049779262
-0.14961056 -0.60650653 0.050620817
-0.049236238 -0.60650688 0.050710149
0.050050192 -0.60650468 0.050576277
0.14970635 -0.6085695 0.050431255
0.24885434 -0.62513983 0.049261674
-0.35902405 -0.55057657 0.049800906
-0.24576111 -0.5749172 0.047859911
-0.14850163 -0.57491308 0.048728954
-0.049651526 -0.57491195 0.049081687
0.050400976 -0.57490015 0.047991924
0.14476916 -0.57492542 0.047989264
0.27854541 -0.55040973 0.050680656
0.30237991 -0.5041424 0.019417167
-0.36882731 -0.45016581 0.049473777
0.28770244 -0.45318881 0.054868113
0.3033883 -0.4330945 0.027557835
-0.37885502 -0.3498309 0.05077295
0.29078653 -0.35866061 0.064929865
0.32151705 -0.33258754 0.034505934
-0.40274402 -0.22909753 0.029224655
-0.3869876 -0.25273979 0.054545168
0.28708959 -0.25798815 0.072210409
0.35076866 -0.25147247 0.062165853
0.4479003 -0.25292817 0.054857757
0.53037202 -0.22421879 0.039718445
-0.40636012 -0.14233752 0.039014362
-0.39038289 -0.15788437 0.062128715
0.2871123 -0.15596645 0.055544488
0.31999108 -0.14781983 0.053507689
0.46610773 -0.17652695 0.043676727
0.55670571 -0.15517926 0.060353599
0.61675614 -0.12807566 0.035567276
-0.41189474 -0.049629401 0.048192617
-0.38640758 -0.057596892 0.06641911
0.29309791 -0.052076481 0.064075649
0.32948032 -0.049404852 0.048701074
0.57006532 -0.055989742 0.055541102
0.63965511 -0.04910557 0.050288849
-0.42066893 0.049131598 0.049949139
-0.38755104 0.048076313 0.051211566
0.29568151 0.036517236 0.085021913
0.33733663 0.050994929 0.049921095
0.5865649 0.041543946 0.040959995
0.65590137 0.051501438 0.054039285
-0.42928863 0.15066972 0.04958459
-0.39235747 0.14817105 0.059598263
0.29850587 0.13050708 0.09554603
0.34545916 0.15087661 0.051376853
0.59645915 0.12504843 0.020728404
0.65910423 0.14795075 0.058439296
0.70562088 0.17028567 0.023237431
-0.43684393 0.25087413 0.04927877
-0.39500317 0.23960111 0.08070571
0.35483795 0.24975793 0.051197276
0.65704161 0.24769914 0.064711548
0.71255279 0.25241727 0.034343328
-0.44418547 0.35129577 0.050640699
0.3625761 0.34973478 0.051767666
0.58580452 0.38889018 0.03028148
0.65623754 0.3553564 0.063618831
0.71188843 0.33952102 0.03228008
-0.45269927 0.45045707 0.050402928
0.36768055 0.44567394 0.059614465
0.45113012 0.4552846 0.060681015
0.55421078 0.45627117 0.057556532
0.64331377 0.43921715 0.04609089
0.70143396 0.40301567 0.0071097612
-0.46149796 0.55104327 0.050071396
0.37817162 0.55183905 0.05480735
0.4441393 0.52322721 0.03529346
0.52660275 0.50684243 0.027288646
-0.46442449 0.62085468 0.050452925
0.38158414 0.62179703 0.053648915
0.40460935 0.61690885 0.034151111
-0.32040066 -0.62408811 0.13798015
-0.2526786 -0.62164384 0.15203741
-0.15000997 -0.60772759 0.15004306
-0.049218118 -0.60657728 0.15052021
0.050313134 -0.60711855 0.15037099
0.15041916 -0.61724257 0.15056098
0.23048501 -0.62585455 0.14557685
-0.32877913 -0.54964268 0.14716834
-0.27027661 -0.56781638 0.16837461
-0.14898594 -0.57493591 0.14504056
-0.050201353 -0.57493162 0.14197768
0.049853627 -0.57491773 0.14446346
0.15104984 -0.57256621 0.1484496
0.24646825 -0.54954016 0.15118986
-0.33783576 -0.45068896 0.1498199
-0.28822717 -0.46022132 0.17806126
0.19065893 -0.45984527 0.19062759
0.25729162 -0.45023689 0.1515373
-0.34842855 -0.35009748 0.1502936
-0.28796211 -0.34779894 0.18612622
0.19151337 -0.37864971 0.19624543
0.26758683 -0.35092983 0.1520762
0.30187917 -0.32095316 0.10954062
-0.35825649 -0.24990104 0.15135916
-0.29336852 -0.24368508 0.1895037
0.27450213 -0.25286371 0.15616487
0.30380866 -0.2325944 0.11338399
-0.40259627 -0.11043344 0.1093519
-0.36828354 -0.14985818 0.1516231
-0.29781547 -0.14300227 0.19558474
0.28014699 -0.15358531 0.16382366
0.30716059 -0.13985534 0.12127355
-0.40456834 -0.038101595 0.11286832
-0.37631005 -0.051889993 0.15504168
0.28412923 -0.053474978 0.1719508
0.31220853 -0.04528942 0.13131937
-0.40815857 0.055985626 0.122656
-0.38090971 0.046983611 0.16282034
0.28616673 0.045777634 0.17455833
0.31771833 0.051414158 0.14187011
-0.41312188 0.15363516 0.13362041
-0.38307735 0.14691077 0.1710154
0.28526297 0.14406186 0.17058933
0.32358378 0.15201311 0.14922558
-0.418459 0.25296402 0.14304185
-0.38472575 0.24630722 0.17020465
0.28824055 0.24613616 0.17610393
0.33116564 0.25138155 0.15016243
-0.42467371 0.35153973 0.14852509
-0.38523996 0.34773144 0.16651493
0.29164615 0.34287903 0.18381204
0.33986962 0.35140511 0.14959045
-0.43208575 0.45133635 0.1482836
-0.38900506 0.448515 0.17534259
0.29552191 0.44293568 0.19151306
0.34717134 0.45159706 0.15118191
-0.43984732 0.55086362 0.1476403
-0.39236623 0.54358006 0.18415812
0.29842529 0.51921356 0.19815159
0.35625029 0.55073988 0.1512104
-0.44083315 0.62101221 0.14995758
-0.39472941 0.61406642 0.19183268
0.36137608 0.62073529 0.15107858
-0.23915941 -0.62499183 0.23425546
-0.15141347 -0.62423718 0.25413767
-0.049527358 -0.62009865 0.25095332
0.0526563 -0.62361425 0.25387681
0.14418064 -0.62577289 0.24067104
0.20789009 -0.61618692 0.20736529
-0.30481282 -0.5284133 0.20447101
-0.25020757 -0.54918247 0.24567521
-0.17425878 -0.55814952 0.28306937
-0.047796544 -0.56946629 0.24931581
0.074261993 -0.56290048 0.27823278
0.15194805 -0.55098623 0.2597138
0.21094923 -0.54507989 0.21267788
-0.30782789 -0.4392938 0.20869979
-0.25294855 -0.45072356 0.25557861
-0.18081927 -0.45909932 0.29057226
-0.05246827 -0.45477325 0.29506692
0.074171029 -0.46154547 0.29001194
0.15651511 -0.45171198 0.2688854
0.21656339 -0.44634596 0.21954447
-0.31269795 -0.34516609 0.21526767
-0.25709784 -0.35176748 0.264393
-0.1770165 -0.36029547 0.28828529
-0.0099888742 -0.37593353 0.29910091
0.070242211 -0.35156289 0.28906757
0.16550416 -0.35219282 0.27362925
0.22272316 -0.34834307 0.22594719
-0.31868216 -0.24802931 0.22246425
-0.26417902 -0.25189605 0.26985654
-0.17691462 -0.25150597 0.28948268
0.082686678 -0.2579273 0.29398909
0.17287934 -0.25331381 0.27849418
0.22879414 -0.24768743 0.23298228
-0.32392979 -0.14851971 0.23015395
-0.2715753 -0.15309007 0.27495974
-0.18626694 -0.16333586 0.29293403
0.091990322 -0.17477973 0.29346165
0.17772695 -0.15338142 0.2840341
0.23444864 -0.14856526 0.23973279
-0.33022887 -0.048735023 0.23670413
-0.27683547 -0.054076307 0.28057745
-0.18657306 -0.079802215 0.29699665
0.18196698 -0.059915774 0.28555208
0.24067494 -0.048693329 0.24638613
-0.33625743 0.050493646 0.24304543
-0.28120789 0.045207638 0.2846722
0.18119021 0.044883143 0.28518617
0.24800277 0.04998558 0.25081238
0.30189851 0.088238567 0.20267008
-0.34280273 0.15049714 0.24844207
-0.27970797 0.14406165 0.28305608
0.18076417 0.14583093 0.28584817
0.25669244 0.15049547 0.25324169
0.30490458 0.16367529 0.20713772
-0.40278763 0.27718464 0.2057132
-0.35164341 0.25045365 0.25042909
-0.28011763 0.24498489 0.28445384
0.18745194 0.24111412 0.29120907
0.26181424 0.24941 0.25935021
0.30798575 0.25806212 0.21403208
-0.40637317 0.36667654 0.20988224
-0.35947284 0.34970462 0.25299075
-0.28738239 0.34919727 0.28814945
0.19243895 0.34193087 0.29558116
0.26665193 0.3496038 0.26380736
0.31347927 0.35502499 0.2213382
-0.40947765 0.45615712 0.21609795
-0.36266398 0.4499273 0.25896356
-0.29267836 0.44084078 0.29352146
0.2714479 0.44938546 0.26711169
0.31882584 0.45418745 0.22884633
-0.41486526 0.55463785 0.223204
-0.36658266 0.54915547 0.26324904
-0.29562941 0.51523525 0.29807821
0.27527106 0.54897612 0.27098852
0.32342678 0.55244535 0.23553152
-0.41526526 0.61935127 0.22583587
-0.37004954 0.62089783 0.26419562
0.27865282 0.62130761 0.27530292
0.32373765 0.62007689 0.2373237
-0.12602971 -0.61810672 0.30840045
-0.04920831 -0.62306309 0.31506765
0.036585979 -0.62084478 0.30985281
-0.13614507 -0.54611349 0.31220669
-0.049003284 -0.55094838 0.32434162
0.044965193 -0.54788524 0.3147155
0.10808682 -0.5219627 0.30231556
-0.20586118 -0.4306539 0.30270234
-0.14538522 -0.44779077 0.31847024
-0.04891425 -0.45021909 0.33390981
0.050223581 -0.4494563 0.32259485
0.11170783 -0.44022819 0.30613446
-0.21025434 -0.33952808 0.30660778
-0.14975634 -0.34933448 0.32652268
-0.048859406 -0.34921095 0.34338251
0.051132664 -0.34984583 0.33222306
0.11808878 -0.34483397 0.31054518
-0.21870264 -0.24424018 0.31040883
-0.15095346 -0.24951546 0.33571875
-0.048924346 -0.24938549 0.35273081
0.05201434 -0.24964218 0.34140903
0.12742797 -0.24678059 0.31537002
-0.22605447 -0.14605308 0.31582618
-0.14990468 -0.14938515 0.3458395
-0.049039923 -0.14985275 0.36212248
0.051908463 -0.15003788 0.35113856
0.13703266 -0.14764546 0.32066283
-0.23420499 -0.047289941 0.32139263
-0.150662 -0.050641544 0.35510245
-0.048364088 -0.050217111 0.37179413
0.052635614 -0.050368994 0.36056277
0.14474328 -0.048780803 0.32634273
0.2012628 -0.014048064 0.30269402
-0.24172083 0.051670499 0.32709858
-0.15095949 0.050509531 0.36442998
-0.049663696 0.049651626 0.38132402
0.051790565 0.050601285 0.37042087
0.1493679 0.050720517 0.3336826
0.20736066 0.063346602 0.30562997
-0.30648896 0.17250629 0.30486408
-0.24727456 0.15156807 0.33312675
-0.15179098 0.15065672 0.37368256
-0.051235743 0.14694236 0.38743201
0.051903423 0.14886948 0.37880716
0.14906542 0.1511382 0.34293234
0.21167219 0.15741447 0.309973
-0.30990213 0.2583839 0.30810982
-0.24947241 0.25121173 0.34169081
-0.15554589 0.24900548 0.38026384
-0.052695982 0.24164525 0.38591608
0.058199961 0.24695724 0.38305202
0.14941925 0.250433 0.35213315
0.21775731 0.25413838 0.31574354
-0.31545651 0.35487828 0.31388369
-0.2491447 0.3510257 0.35132241
-0.16342467 0.34686497 0.38221458
-0.049634136 0.35106972 0.38336584
0.063901447 0.34513548 0.38328499
0.15134944 0.3508063 0.36051372
0.2250925 0.35222068 0.3207196
-0.32139462 0.45240802 0.31963411
-0.25083783 0.45089561 0.35820809
-0.16192466 0.44813856 0.38250172
-0.050466064 0.44889128 0.39086172
0.057358734 0.44993627 0.38391337
0.1539381 0.44996148 0.36714357
0.23088212 0.45376396 0.32606721
-0.32779637 0.55241925 0.32472295
-0.25517154 0.54948735 0.3639805
-0.15727019 0.54806823 0.38575503
-0.052083436 0.54360807 0.39520916
0.05876952 0.54727346 0.38869509
0.15939873 0.54950756 0.37125289
0.23548533 0.55291224 0.33159119
-0.32742241 0.62004483 0.32480875
-0.25587386 0.62086302 0.36677635
-0.1663076 0.61964101 0.39003524
-0.072402611 0.6101954 0.39880955
0.069376893 0.61798203 0.39302951
0.15904209 0.62163311 0.37490982
0.23759635 0.62065154 0.33146206
-0.051147301 0.09533944 0.40078655
-0.1149964 0.18810406 0.40132856
-0.04653953 0.16620523 0.40348476
0.018529763 0.17478402 0.40232697
-0.11827637 0.26202053 0.40461582
-0.047346555 0.25509211 0.40727225
0.028658431 0.25875518 0.40528789
-0.13064858 0.35520577 0.40795091
-0.048805516 0.35038304 0.41474703
0.041049041 0.35403928 0.40935037
0.10537359 0.37853095 0.40200096
-0.20362017 0.46326962 0.40252563
-0.14290008 0.45354918 0.41321245
-0.048809428 0.45201442 0.42322904
0.049030066 0.45197469 0.41586581
0.11178492 0.46665019 0.40485874
-0.21232855 0.56074733 0.40546802
-0.14719823 0.55157173 0.42007291
-0.048232947 0.55270517 0.42857641
0.049239878 0.55174202 0.42306647
0.12127832 0.55802894 0.40813825
-0.21610636 0.61568832 0.40693203
-0.14679094 0.6205858 0.42028075
-0.049405225 0.620947 0.4283748
0.046949226 0.621023 0.42289254
0.12290061 0.61843199 0.41056436
